//X Y Z R G B
1058
-1.46593082 0.61235088 2.93851376 40 40 40
-0.70913440 0.39663449 1.90334654 153 153 153
-0.70570034 0.39663449 1.90334654 141 141 141
-0.70226628 0.39663449 1.90334654 142 142 142
-0.69883239 0.39663458 1.90334702 142 142 142
-0.69539833 0.39663458 1.90334702 144 144 143
-0.69196421 0.39663458 1.90334702 132 132 131
-0.68853015 0.39663458 1.90334702 132 132 132
-0.68509626 0.39663470 1.90334749 132 132 132
-0.68166220 0.39663470 1.90334749 132 132 132
-0.67822820 0.39663470 1.90334761 133 133 133
-0.67479414 0.39663470 1.90334761 133 133 133
-0.67136008 0.39663470 1.90334761 133 133 133
-0.66792613 0.39663482 1.90334809 133 133 133
-0.66449207 0.39663482 1.90334809 133 133 133
-0.66105801 0.39663482 1.90334809 134 134 134
-0.65762395 0.39663482 1.90334809 133 133 133
-0.65419006 0.39663491 1.90334857 133 133 133
-0.65075600 0.39663491 1.90334857 134 134 134
-0.64732188 0.39663491 1.90334857 134 134 134
-0.64388782 0.39663491 1.90334857 134 134 134
-0.64045388 0.39663500 1.90334892 135 135 135
-0.63701981 0.39663500 1.90334892 134 134 134
-0.63358575 0.39663500 1.90334892 134 134 134
-0.63015169 0.39663500 1.90334892 134 134 134
-0.62671775 0.39663509 1.90334940 135 135 135
-0.62328368 0.39663509 1.90334940 135 135 135
-0.61984962 0.39663509 1.90334940 135 135 135
-0.61641574 0.39663517 1.90334988 136 136 136
-0.61298162 0.39663517 1.90334988 136 136 136
-0.60954756 0.39663517 1.90334988 136 136 136
-0.60611349 0.39663517 1.90334988 136 136 135
-0.60267955 0.39663526 1.90335023 136 136 135
-0.59924549 0.39663526 1.90335023 136 136 135
-0.59581143 0.39663526 1.90335023 136 136 135
-0.59237731 0.39663526 1.90335023 136 136 135
-0.58894342 0.39663535 1.90335071 136 136 135
-0.58550936 0.39663535 1.90335071 136 136 135
-0.58207524 0.39663535 1.90335071 135 136 135
-0.57864118 0.39663535 1.90335071 136 136 136
-0.57520723 0.39663544 1.90335107 136 136 136
-0.57177317 0.39663544 1.90335107 136 136 136
-0.56833911 0.39663544 1.90335107 136 136 136
-0.56490499 0.39663544 1.90335107 136 136 136
-0.56147110 0.39663553 1.90335155 135 135 135
-0.55803698 0.39663553 1.90335155 135 135 135
-0.55460292 0.39663553 1.90335155 135 135 135
-0.55116886 0.39663553 1.90335155 135 135 135
-0.54773492 0.39663562 1.90335202 134 134 134
-0.54430085 0.39663562 1.90335202 134 134 134
-0.54086679 0.39663562 1.90335202 134 134 134
-0.53743279 0.39663571 1.90335238 134 134 134
-0.53399873 0.39663571 1.90335238 134 134 134
-0.53056467 0.39663571 1.90335238 135 135 135
-0.52713054 0.39663571 1.90335238 135 135 135
-0.52369660 0.39663580 1.90335286 135 135 135
-0.52026254 0.39663580 1.90335286 135 135 134
-0.51682848 0.39663580 1.90335286 135 135 134
-0.51339442 0.39663580 1.90335286 135 135 134
-0.50996047 0.39663589 1.90335333 135 135 134
-0.50652635 0.39663589 1.90335333 135 135 134
-0.50309229 0.39663589 1.90335333 135 135 134
-0.49965823 0.39663589 1.90335333 134 134 133
-0.49622422 0.39663598 1.90335369 134 134 133
-0.49279016 0.39663598 1.90335369 135 135 134
-0.48935607 0.39663598 1.90335369 135 135 135
-0.48592201 0.39663598 1.90335369 136 136 136
-0.48248804 0.39663607 1.90335417 135 135 135
-0.47905397 0.39663607 1.90335417 136 136 136
-0.47561988 0.39663607 1.90335417 135 135 135
-0.47218582 0.39663607 1.90335417 134 134 134
-0.46875182 0.39663616 1.90335453 133 133 133
-0.46531773 0.39663616 1.90335453 132 132 132
-0.46188366 0.39663616 1.90335453 132 132 132
-0.45844957 0.39663616 1.90335453 132 132 132
-0.45501560 0.39663625 1.90335500 132 132 132
-0.45158154 0.39663625 1.90335500 131 131 131
-0.44814745 0.39663625 1.90335500 131 131 131
-0.44471347 0.39663634 1.90335548 131 131 131
-0.44127941 0.39663634 1.90335548 131 131 130
-0.43784532 0.39663634 1.90335548 129 129 129
-0.43441123 0.39663634 1.90335548 129 129 129
-0.43097726 0.39663643 1.90335584 129 129 129
-0.42754316 0.39663643 1.90335584 129 129 129
-0.42410907 0.39663643 1.90335584 128 128 128
-0.42067501 0.39663643 1.90335584 128 128 128
-0.41724101 0.39663652 1.90335631 128 128 128
-0.41380695 0.39663652 1.90335631 127 127 127
-0.41037285 0.39663652 1.90335631 127 127 127
-0.40693891 0.39663664 1.90335691 127 127 127
-0.40350482 0.39663664 1.90335691 127 127 127
-0.40007073 0.39663664 1.90335691 126 126 126
-0.39663675 0.39663675 1.90335739 127 127 126
-0.39320266 0.39663675 1.90335739 127 127 127
-0.38976857 0.39663675 1.90335739 127 127 127
-0.38633451 0.39663675 1.90335739 127 127 127
-0.38290051 0.39663684 1.90335786 127 127 127
-0.37946641 0.39663684 1.90335786 126 126 126
-0.37603232 0.39663684 1.90335786 125 125 125
-0.37259832 0.39663693 1.90335822 125 125 124
-0.36916423 0.39663693 1.90335822 125 125 125
-0.36573014 0.39663693 1.90335822 125 125 125
-0.36229607 0.39663693 1.90335822 125 125 125
-0.35906950 0.39686629 1.90445888 124 124 124
-0.35584879 0.39710662 1.90561223 121 121 121
-0.35262424 0.39734733 1.90676725 120 120 120
-0.34939575 0.39758825 1.90792346 121 121 121
-0.34616330 0.39782947 1.90908098 126 126 126
-0.34292698 0.39807102 1.91024005 129 129 129
-0.33968672 0.39831287 1.91140068 123 123 123
-0.33644253 0.39855498 1.91256249 118 118 118
-0.33319435 0.39879739 1.91372573 120 120 120
-0.32994223 0.39904007 1.91489029 118 118 117
-0.32668617 0.39928311 1.91605663 119 119 118
-0.32342616 0.39952642 1.91722417 122 122 122
-0.32016212 0.39976999 1.91839302 117 117 117
-0.31689411 0.40001389 1.91956341 116 116 116
-0.31362215 0.40025809 1.92073536 118 118 118
-0.31034616 0.40050256 1.92190850 118 118 118
-0.30706617 0.40074736 1.92308319 119 119 119
-0.30378214 0.40099242 1.92425919 118 118 118
-0.30049416 0.40123788 1.92543697 118 118 118
-0.29720211 0.40148357 1.92661595 116 116 116
-0.29390600 0.40172952 1.92779624 119 119 119
-0.29076108 0.40219051 1.93000841 124 124 124
-0.28784186 0.40297857 1.93379021 123 123 122
-0.28691730 0.40661287 1.95123017 150 150 150
-1.03502917 0.37740499 1.79552352 45 45 45
-1.03243935 0.37764266 1.79665422 46 46 45
-1.02984631 0.37788063 1.79778636 45 45 45
-1.02725005 0.37811890 1.79891992 44 44 44
-1.02465045 0.37835747 1.80005491 42 42 42
-1.02204764 0.37859634 1.80119133 44 44 43
-1.01944137 0.37883547 1.80232906 44 44 44
-1.01682496 0.37907237 1.80345607 45 45 45
-1.01420510 0.37930945 1.80458403 44 44 44
-1.01158178 0.37954682 1.80571330 45 45 45
-1.00895536 0.37978449 1.80684412 44 44 44
-1.00632548 0.38002244 1.80797613 43 43 43
-1.00422215 0.38046139 1.81006444 45 45 45
-1.00279474 0.38116014 1.81338882 46 46 46
-1.00111723 0.38176811 1.81628120 48 48 48
-0.99943417 0.38237792 1.81918252 51 51 51
-0.99774587 0.38298976 1.82209337 55 55 55
-0.99605215 0.38360357 1.82501352 59 59 58
-0.99435306 0.38421935 1.82794309 63 63 63
-0.99406946 0.38538799 1.83350301 62 62 62
-0.99480635 0.38696140 1.84098864 64 64 64
-0.99510884 0.38837582 1.84771776 68 68 68
-0.99541348 0.38980058 1.85449612 69 69 69
-0.99572039 0.39123583 1.86132443 74 74 74
-1.00710177 0.39704689 1.88897085 72 72 72
-1.03356314 0.40886283 1.94518578 71 71 71
-1.05975080 0.42065066 2.00126696 71 71 71
-1.08535135 0.43228525 2.05661917 70 70 70
-1.11240840 0.44458178 2.11512041 68 68 68
-1.14104986 0.45759830 2.17704725 67 67 67
-1.16781390 0.46994928 2.23580766 67 67 67
-1.18600798 0.47892526 2.27851129 66 66 65
-1.19532430 0.48436621 2.30439687 65 65 65
-1.20485437 0.48993206 2.33087683 65 65 65
-1.21460640 0.49562749 2.35797310 64 64 64
-1.22458768 0.50145680 2.38570642 63 63 63
-1.23480654 0.50742489 2.41409993 62 62 62
-1.27071321 0.52402866 2.49309301 50 50 50
-1.28166795 0.53042388 2.52351856 52 52 52
-1.31253660 0.54513556 2.59351015 52 52 52
-1.33980572 0.55845213 2.65686440 52 52 52
-1.36469877 0.57087040 2.71594501 50 50 50
-1.39072406 0.58385348 2.77771282 46 46 46
-1.46596503 0.61766696 2.93858218 39 39 39
-0.74730653 0.39663422 1.88700747 153 153 153
-0.74390191 0.39663422 1.88700747 140 140 140
-0.74049735 0.39663422 1.88700747 140 140 140
-0.73709273 0.39663422 1.88700747 141 141 140
-0.73368835 0.39663431 1.88700795 142 142 142
-0.73028380 0.39663431 1.88700795 130 130 130
-0.72687918 0.39663431 1.88700795 130 130 130
-0.72347462 0.39663431 1.88700795 129 129 129
-0.72007018 0.39663440 1.88700843 130 130 130
-0.71666563 0.39663440 1.88700843 129 129 129
-0.71326101 0.39663440 1.88700843 129 129 129
-0.70985645 0.39663443 1.88700855 130 130 130
-0.70645189 0.39663443 1.88700855 130 130 130
-0.70304728 0.39663443 1.88700855 130 130 130
-0.69964290 0.39663455 1.88700902 131 131 130
-0.69623828 0.39663455 1.88700902 131 131 130
-0.69283372 0.39663455 1.88700902 131 131 130
-0.68942928 0.39663461 1.88700938 132 132 131
-0.68602467 0.39663461 1.88700938 132 132 131
-0.68262011 0.39663461 1.88700938 132 132 131
-0.67921549 0.39663461 1.88700938 132 132 132
-0.67581105 0.39663470 1.88700986 132 132 132
-0.67240649 0.39663470 1.88700986 133 133 133
-0.66900188 0.39663470 1.88700986 134 134 134
-0.66559732 0.39663470 1.88700986 134 134 134
-0.66219288 0.39663482 1.88701034 134 134 134
-0.65878826 0.39663482 1.88701034 134 134 134
-0.65538371 0.39663482 1.88701034 134 134 134
-0.65197909 0.39663482 1.88701034 135 135 135
-0.64857465 0.39663488 1.88701069 135 135 135
-0.64517003 0.39663488 1.88701069 136 136 136
-0.64176548 0.39663488 1.88701069 136 136 136
-0.63836086 0.39663488 1.88701069 136 136 136
-0.63495642 0.39663500 1.88701117 136 136 136
-0.63155186 0.39663500 1.88701117 136 136 136
-0.62814724 0.39663500 1.88701117 136 136 136
-0.62474269 0.39663500 1.88701117 136 136 136
-0.62133819 0.39663506 1.88701153 134 134 134
-0.61793357 0.39663506 1.88701153 134 134 134
-0.61452901 0.39663506 1.88701153 134 134 134
-0.61112458 0.39663517 1.88701200 134 134 134
-0.60771996 0.39663517 1.88701200 134 134 134
-0.60431540 0.39663517 1.88701200 134 134 134
-0.60091078 0.39663517 1.88701200 134 134 134
-0.59750628 0.39663523 1.88701236 133 133 133
-0.59410173 0.39663523 1.88701236 133 133 133
-0.59069711 0.39663523 1.88701236 133 133 133
-0.58729249 0.39663523 1.88701236 133 133 133
-0.58388805 0.39663532 1.88701284 135 135 135
-0.58048350 0.39663532 1.88701284 135 135 135
-0.57707888 0.39663532 1.88701284 135 135 135
-0.57367426 0.39663532 1.88701284 135 135 135
-0.57026982 0.39663544 1.88701332 136 136 136
-0.56686527 0.39663544 1.88701332 136 136 135
-0.56346065 0.39663544 1.88701332 135 135 135
-0.56005603 0.39663544 1.88701332 135 135 134
-0.55665153 0.39663550 1.88701367 135 135 134
-0.55324697 0.39663550 1.88701367 135 135 134
-0.54984236 0.39663550 1.88701367 134 134 133
-0.54643774 0.39663550 1.88701367 133 133 133
-0.54303330 0.39663562 1.88701415 133 133 132
-0.53962868 0.39663562 1.88701415 132 132 132
-0.53622413 0.39663562 1.88701415 132 132 132
-0.53281963 0.39663568 1.88701451 132 132 132
-0.52941501 0.39663568 1.88701451 131 131 131
-0.52601039 0.39663568 1.88701451 132 132 132
-0.52260584 0.39663568 1.88701451 133 133 132
-0.51920134 0.39663580 1.88701499 134 134 133
-0.51579678 0.39663580 1.88701499 133 133 133
-0.51239216 0.39663580 1.88701499 133 133 132
-0.50898755 0.39663580 1.88701499 133 133 132
-0.50558305 0.39663586 1.88701534 132 132 132
-0.50217843 0.39663586 1.88701534 132 132 132
-0.49877384 0.39663586 1.88701534 131 131 131
-0.49536926 0.39663586 1.88701534 131 131 131
-0.49196479 0.39663595 1.88701582 131 131 131
-0.48856017 0.39663595 1.88701582 132 132 132
-0.48515558 0.39663595 1.88701582 131 131 131
-0.48175097 0.39663595 1.88701582 132 132 132
-0.47834647 0.39663604 1.88701618 132 132 132
-0.47494188 0.39663604 1.88701618 132 132 132
-0.47153726 0.39663604 1.88701618 131 131 131
-0.46813285 0.39663619 1.88701689 130 130 130
-0.46472824 0.39663619 1.88701689 129 129 129
-0.46132371 0.39663628 1.88701725 128 128 128
-0.45791912 0.39663628 1.88701725 127 127 127
-0.45451450 0.39663628 1.88701725 127 127 127
-0.45110992 0.39663628 1.88701725 127 127 127
-0.44770542 0.39663637 1.88701773 127 127 127
-0.44430083 0.39663637 1.88701773 125 125 125
-0.44089621 0.39663637 1.88701773 125 125 125
-0.43749163 0.39663637 1.88701773 126 126 126
-0.43408710 0.39663643 1.88701808 126 126 126
-0.43068248 0.39663643 1.88701808 125 125 125
-0.42727789 0.39663643 1.88701808 125 125 125
-0.42387328 0.39663643 1.88701808 125 125 125
-0.42046878 0.39663655 1.88701856 124 124 124
-0.41706416 0.39663655 1.88701856 124 124 124
-0.41365957 0.39663655 1.88701856 123 123 123
-0.41025496 0.39663655 1.88701856 123 123 123
-0.40685046 0.39663664 1.88701904 124 124 124
-0.40344584 0.39663664 1.88701904 123 123 123
-0.40004125 0.39663664 1.88701904 123 123 123
-0.39681610 0.39681610 1.88787282 123 123 123
-0.39364612 0.39705431 1.88900614 121 121 121
-0.39047235 0.39729282 1.89014089 121 121 120
-0.38729477 0.39753166 1.89127707 123 123 123
-0.38411340 0.39777076 1.89241469 122 122 122
-0.38092819 0.39801016 1.89355361 120 120 120
-0.37773907 0.39824980 1.89469373 118 118 118
-0.37454617 0.39848977 1.89583540 119 119 119
-0.37134942 0.39873004 1.89697850 120 120 120
-0.36814883 0.39897057 1.89812291 118 118 118
-0.36494434 0.39921141 1.89926863 119 119 119
-0.36173597 0.39945254 1.90041578 120 120 120
-0.35852379 0.39969397 1.90156448 122 122 122
-0.35530767 0.39993566 1.90271437 122 122 122
-0.35208762 0.40017766 1.90386558 116 116 116
-0.34886372 0.40041995 1.90501833 120 120 120
-0.34563592 0.40066254 1.90617251 120 120 120
-0.34240422 0.40090543 1.90732801 115 115 115
-0.33916855 0.40114862 1.90848494 116 116 116
-0.33592898 0.40139204 1.90964317 114 114 114
-0.33268550 0.40163586 1.91080308 113 113 113
-0.32943803 0.40187991 1.91196418 112 112 112
-0.32618663 0.40212426 1.91312671 111 111 111
-0.32293126 0.40236890 1.91429055 112 112 111
-0.31967199 0.40261391 1.91545618 111 111 111
-0.31640866 0.40285912 1.91662288 111 111 111
-0.31314141 0.40310469 1.91779113 113 113 113
-0.30987015 0.40335053 1.91896069 114 114 114
-0.30659494 0.40359670 1.92013192 114 114 114
-0.30331567 0.40384313 1.92130435 116 116 116
-0.30003241 0.40408990 1.92247832 113 113 113
-0.29674512 0.40433693 1.92365360 111 111 111
-0.29345387 0.40458432 1.92483056 111 111 110
-0.29021987 0.40491757 1.92641592 111 111 111
-0.28733060 0.40574563 1.93035555 116 116 116
-0.28438914 0.40651944 1.93403697 115 116 115
-0.28139606 0.40723777 1.93745446 113 113 113
-1.03496814 0.38062209 1.79541767 44 44 44
-1.03237844 0.38086173 1.79654813 46 46 45
-1.02978551 0.38110176 1.79768026 45 45 45
-1.02718937 0.38134199 1.79881358 44 44 44
-1.02458990 0.38158262 1.79994857 42 42 42
-1.02198708 0.38182348 1.80108476 44 44 44
-1.01938105 0.38206467 1.80222237 44 44 44
-1.01676774 0.38230467 1.80335450 44 44 44
-1.01414788 0.38254377 1.80448234 44 44 44
-1.01152480 0.38278314 1.80561149 44 44 44
-1.00889850 0.38302284 1.80674219 43 43 43
-1.00626874 0.38326281 1.80787408 43 43 43
-1.00412810 0.38369122 1.80989492 45 45 45
-1.00268412 0.38438949 1.81318879 45 45 44
-1.00100660 0.38500252 1.81608045 46 46 46
-0.99932355 0.38561746 1.81898117 49 49 49
-0.99763525 0.38623440 1.82189131 53 53 53
-0.99594158 0.38685334 1.82481086 58 58 58
-0.99424243 0.38747424 1.82773972 61 61 61
-0.99385381 0.38861173 1.83310533 61 61 61
-0.99455470 0.39018422 1.84052289 64 64 64
-0.99485612 0.39161003 1.84724844 66 66 66
-0.99515986 0.39304632 1.85402358 68 68 68
-0.99546570 0.39449313 1.86084831 73 73 73
-1.00595045 0.39999720 1.88681126 72 72 72
-1.03234637 0.41188690 1.94289577 70 70 70
-1.05788875 0.42351595 1.99775064 70 70 70
-1.08339167 0.43520865 2.05290580 70 70 69
-1.11034286 0.44756532 2.11119294 68 68 68
-1.13886917 0.46064416 2.17288661 66 66 66
-1.16574049 0.47314167 2.23183823 66 66 66
-1.18664050 0.48329380 2.27972651 65 65 65
-1.19596910 0.48878738 2.30563998 65 65 65
-1.20551193 0.49440715 2.33214879 64 64 64
-1.21527684 0.50015771 2.35927463 64 64 64
-1.22527170 0.50604367 2.38703895 62 63 62
-1.23550451 0.51206976 2.41546440 61 61 61
-1.27089620 0.52860284 2.49345207 48 48 48
-1.28319347 0.53561360 2.52652216 51 51 51
-1.31414223 0.55048740 2.59668279 52 52 52
-1.34051371 0.56354332 2.65826845 51 51 51
-1.36543596 0.57608163 2.71741223 49 49 49
-1.40085959 0.59315675 2.79795671 46 46 46
-1.46599913 0.62298334 2.93865061 38 38 38
-0.78145331 0.39663395 1.87094665 151 151 150
-0.77807766 0.39663395 1.87094665 137 137 137
-0.77470207 0.39663395 1.87094665 138 138 138
-0.77132648 0.39663395 1.87094665 138 138 138
-0.76795101 0.39663404 1.87094700 127 127 127
-0.76457536 0.39663404 1.87094700 128 128 128
-0.76119977 0.39663404 1.87094700 129 129 129
-0.75782418 0.39663404 1.87094700 129 129 129
-0.75444877 0.39663413 1.87094748 129 129 129
-0.75107312 0.39663413 1.87094748 129 129 128
-0.74769753 0.39663413 1.87094748 129 129 128
-0.74432200 0.39663416 1.87094760 129 129 128
-0.74094635 0.39663416 1.87094760 129 129 128
-0.73757076 0.39663416 1.87094760 129 129 129
-0.73419535 0.39663425 1.87094808 130 130 129
-0.73081970 0.39663425 1.87094808 130 130 130
-0.72744411 0.39663425 1.87094808 131 131 131
-0.72406852 0.39663425 1.87094808 131 131 131
-0.72069305 0.39663434 1.87094843 131 131 131
-0.71731740 0.39663434 1.87094843 132 132 132
-0.71394181 0.39663434 1.87094843 132 132 131
-0.71056616 0.39663434 1.87094843 131 131 130
-0.70719075 0.39663443 1.87094891 131 131 130
-0.70381516 0.39663443 1.87094891 131 131 130
-0.70043951 0.39663443 1.87094891 131 131 130
-0.69706392 0.39663443 1.87094891 131 131 130
-0.69368845 0.39663452 1.87094927 131 131 131
-0.69031280 0.39663452 1.87094927 131 131 131
-0.68693721 0.39663452 1.87094927 131 131 131
-0.68356180 0.39663461 1.87094975 132 132 132
-0.68018615 0.39663461 1.87094975 133 133 133
-0.67681056 0.39663461 1.87094975 133 133 133
-0.67343491 0.39663461 1.87094975 133 133 133
-0.67005944 0.39663470 1.87095010 133 133 133
-0.66668385 0.39663470 1.87095010 133 133 133
-0.66330820 0.39663470 1.87095010 134 134 133
-0.65993261 0.39663470 1.87095010 134 134 133
-0.65655714 0.39663479 1.87095058 135 135 134
-0.65318155 0.39663479 1.87095058 135 135 134
-0.64980590 0.39663479 1.87095058 135 135 134
-0.64643031 0.39663479 1.87095058 135 135 134
-0.64305484 0.39663488 1.87095094 134 134 134
-0.63967919 0.39663488 1.87095094 134 134 134
-0.63630360 0.39663488 1.87095094 134 134 134
-0.63292795 0.39663488 1.87095094 134 134 134
-0.62955254 0.39663497 1.87095141 134 134 134
-0.62617689 0.39663497 1.87095141 134 134 134
-0.62280130 0.39663497 1.87095141 133 133 133
-0.61942565 0.39663497 1.87095141 134 134 134
-0.61605018 0.39663506 1.87095177 134 134 134
-0.61267453 0.39663506 1.87095177 134 134 134
-0.60929894 0.39663506 1.87095177 134 134 134
-0.60592347 0.39663514 1.87095225 133 133 133
-0.60254788 0.39663514 1.87095225 133 133 133
-0.59917223 0.39663514 1.87095225 132 132 132
-0.59579664 0.39663514 1.87095225 132 132 132
-0.59242111 0.39663523 1.87095261 132 132 132
-0.58904552 0.39663523 1.87095261 131 131 131
-0.58566988 0.39663523 1.87095261 131 131 131
-0.58229429 0.39663523 1.87095261 131 131 131
-0.57891881 0.39663532 1.87095308 132 132 132
-0.57554317 0.39663532 1.87095308 133 133 133
-0.57216758 0.39663532 1.87095308 134 134 134
-0.56879193 0.39663532 1.87095308 133 133 133
-0.56541640 0.39663538 1.87095344 134 134 134
-0.56204081 0.39663538 1.87095344 133 133 133
-0.55866516 0.39663538 1.87095344 133 133 133
-0.55528957 0.39663538 1.87095344 133 133 133
-0.55191410 0.39663550 1.87095392 133 133 133
-0.54853845 0.39663550 1.87095392 133 133 133
-0.54516286 0.39663550 1.87095392 131 131 131
-0.54178721 0.39663550 1.87095392 131 131 131
-0.53841168 0.39663556 1.87095428 131 131 130
-0.53503609 0.39663556 1.87095428 130 130 130
-0.53166044 0.39663556 1.87095428 130 130 129
-0.52828503 0.39663571 1.87095499 129 129 128
-0.52490938 0.39663571 1.87095499 129 129 128
-0.52153391 0.39663580 1.87095535 129 129 128
-0.51815826 0.39663580 1.87095535 129 129 128
-0.51478261 0.39663580 1.87095535 128 128 127
-0.51140702 0.39663580 1.87095535 127 127 127
-0.50803149 0.39663589 1.87095582 127 127 127
-0.50465590 0.39663589 1.87095582 127 127 127
-0.50128025 0.39663589 1.87095582 126 126 126
-0.49790463 0.39663589 1.87095582 127 127 127
-0.49452910 0.39663598 1.87095618 127 127 127
-0.49115348 0.39663598 1.87095618 127 127 127
-0.48777786 0.39663598 1.87095618 127 127 127
-0.48440224 0.39663598 1.87095618 127 127 127
-0.48102674 0.39663607 1.87095666 127 127 127
-0.47765112 0.39663607 1.87095666 126 126 126
-0.47427547 0.39663607 1.87095666 126 126 126
-0.47089985 0.39663607 1.87095666 126 126 126
-0.46752432 0.39663616 1.87095702 124 124 124
-0.46414870 0.39663616 1.87095702 123 123 123
-0.46077305 0.39663616 1.87095702 123 123 123
-0.45739755 0.39663625 1.87095749 123 123 123
-0.45402193 0.39663625 1.87095749 123 123 123
-0.45064631 0.39663625 1.87095749 121 121 121
-0.44727066 0.39663625 1.87095749 120 120 120
-0.44389513 0.39663634 1.87095785 121 121 121
-0.44051951 0.39663634 1.87095785 121 121 121
-0.43714386 0.39663634 1.87095785 124 124 124
-0.43391085 0.39676672 1.87157297 122 122 122
-0.43079036 0.39700288 1.87268686 119 119 118
-0.42766619 0.39723936 1.87380230 118 118 117
-0.42453825 0.39747605 1.87491882 121 121 120
-0.42140663 0.39771307 1.87603688 121 121 120
-0.41827121 0.39795035 1.87715614 117 117 117
-0.41513208 0.39818791 1.87827671 112 112 112
-0.41198915 0.39842573 1.87939858 115 115 114
-0.40884256 0.39866391 1.88052201 120 120 119
-0.40569213 0.39890230 1.88164651 121 121 121
-0.40253794 0.39914098 1.88277245 117 117 117
-0.39937997 0.39937997 1.88389969 118 118 118
-0.39621821 0.39961922 1.88502836 119 119 119
-0.39305273 0.39985883 1.88615859 118 118 118
-0.38988337 0.40009865 1.88728988 118 118 118
-0.38671023 0.40033877 1.88842249 116 116 116
-0.38353327 0.40057918 1.88955653 114 114 114
-0.38035256 0.40081996 1.89069223 114 114 114
-0.37716794 0.40106094 1.89182901 110 110 110
-0.37397951 0.40130222 1.89296710 112 112 111
-0.37078723 0.40154380 1.89410663 124 124 124
-0.36759117 0.40178570 1.89524770 113 113 113
-0.36439121 0.40202785 1.89638996 115 115 115
-0.36118737 0.40227032 1.89753366 120 120 120
-0.35797969 0.40251306 1.89867866 119 119 119
-0.35476816 0.40275609 1.89982522 120 120 120
-0.35155270 0.40299943 1.90097296 118 118 118
-0.34833336 0.40324304 1.90212214 113 113 113
-0.34511015 0.40348697 1.90327275 117 117 117
-0.34188303 0.40373123 1.90442491 115 115 115
-0.33865198 0.40397573 1.90557826 113 113 113
-0.33541703 0.40422055 1.90673304 115 115 114
-0.33217815 0.40446562 1.90788913 110 110 109
-0.32893538 0.40471107 1.90904689 105 105 105
-0.32568863 0.40495676 1.91020584 104 104 103
-0.32243794 0.40520278 1.91136622 108 108 108
-0.31918329 0.40544906 1.91252804 106 106 106
-0.31592473 0.40569568 1.91369140 107 107 107
-0.31266218 0.40594259 1.91485608 110 110 110
-0.30939561 0.40618977 1.91602206 110 110 110
-0.30612510 0.40643728 1.91718948 108 108 108
-0.30285060 0.40668511 1.91835856 107 107 107
-0.29957211 0.40693322 1.91952884 107 107 107
-0.29628959 0.40718159 1.92070055 106 106 106
-0.29300308 0.40743032 1.92187381 102 102 101
-0.28971258 0.40767938 1.92304862 100 100 100
-0.28679565 0.40846652 1.92676151 112 112 111
-0.28389883 0.40930200 1.93070257 116 116 116
-0.28093556 0.41006121 1.93428385 119 119 118
-0.27793601 0.41078591 1.93770230 123 123 123
-0.27656698 0.41396967 1.95272028 152 152 152
-1.03490710 0.38383880 1.79531181 42 42 42
-1.03231752 0.38408047 1.79644215 45 45 45
-1.02972484 0.38432249 1.79757416 44 44 44
-1.02712870 0.38456476 1.79870737 43 43 42
-1.02452934 0.38480738 1.79984212 42 42 42
-1.02192664 0.38505027 1.80097818 43 43 43
-1.01932073 0.38529345 1.80211568 44 44 44
-1.01671052 0.38553661 1.80325294 44 44 44
-1.01409078 0.38577771 1.80438066 44 44 44
-1.01146770 0.38601908 1.80550957 43 43 43
-1.00884151 0.38626081 1.80664015 43 43 42
-1.00621188 0.38650280 1.80777204 44 44 44
-1.00403404 0.38692045 1.80972552 45 45 45
-1.00257337 0.38761809 1.81298864 45 45 45
-1.00089586 0.38823622 1.81587970 47 47 46
-0.99921292 0.38885626 1.81877983 51 51 51
-0.99752468 0.38947833 1.82168937 54 54 54
-0.99583095 0.39010239 1.82460821 57 57 57
-0.99413186 0.39072844 1.82753646 58 58 57
-0.99363822 0.39183405 1.83270764 60 60 60
-0.99430317 0.39340541 1.84005737 64 64 63
-0.99460357 0.39484262 1.84677958 65 65 65
-0.99490631 0.39629042 1.85355127 68 68 68
-0.99521118 0.39774883 1.86037254 72 72 71
-1.00480163 0.40294075 1.88465655 72 72 72
-1.03113246 0.41490388 1.94061112 70 70 70
-1.05603325 0.42637119 1.99424660 70 70 70
-1.08143914 0.43812147 2.04920578 69 69 69
-1.10828495 0.45053780 2.10728002 68 68 68
-1.13669682 0.46367839 2.16874194 66 66 66
-1.16367459 0.47632274 2.22788286 65 65 65
-1.18727398 0.48766711 2.28094339 65 65 65
-1.19661474 0.49321336 2.30688453 64 64 64
-1.20617008 0.49888712 2.33342218 64 64 64
-1.21594810 0.50469303 2.36057782 63 63 63
-1.22595644 0.51063561 2.38837290 62 62 62
-1.23620319 0.51671982 2.41683030 61 61 61
-1.27107942 0.53317845 2.49381137 49 49 49
-1.28472269 0.54081577 2.52953315 51 51 51
-1.31575191 0.55585241 2.59986329 51 51 51
-1.34122264 0.56863999 2.65967417 50 50 50
-1.36617422 0.58129853 2.71888137 48 48 48
-1.41340995 0.60356426 2.82302380 44 44 44
-1.46603322 0.62829995 2.93871903 37 37 37
-0.81837052 0.39663357 1.85515618 150 150 150
-0.81502354 0.39663363 1.85515654 135 135 135
-0.81167644 0.39663363 1.85515654 136 136 136
-0.80832928 0.39663363 1.85515654 136 136 136
-0.80498219 0.39663363 1.85515654 137 137 137
-0.80163527 0.39663374 1.85515702 123 123 123
-0.79828817 0.39663374 1.85515702 123 123 123
-0.79494101 0.39663374 1.85515702 123 123 123
-0.79159391 0.39663374 1.85515702 123 123 123
-0.78824693 0.39663380 1.85515738 124 124 124
-0.78489983 0.39663380 1.85515738 124 124 124
-0.78155267 0.39663380 1.85515738 125 125 125
-0.77820557 0.39663380 1.85515738 125 125 125
-0.77485865 0.39663392 1.85515785 126 126 126
-0.77151155 0.39663392 1.85515785 127 127 127
-0.76816440 0.39663392 1.85515785 127 127 127
-0.76481742 0.39663398 1.85515821 128 128 128
-0.76147032 0.39663398 1.85515821 130 130 130
-0.75812322 0.39663398 1.85515821 130 130 130
-0.75477624 0.39663407 1.85515857 130 130 130
-0.75142908 0.39663407 1.85515857 130 130 130
-0.74808198 0.39663407 1.85515857 130 130 130
-0.74473482 0.39663407 1.85515857 131 131 130
-0.74138790 0.39663416 1.85515904 131 131 130
-0.73804080 0.39663416 1.85515904 131 131 130
-0.73469365 0.39663416 1.85515904 131 131 130
-0.73134655 0.39663416 1.85515904 131 131 130
-0.72799957 0.39663425 1.85515940 131 131 130
-0.72465241 0.39663425 1.85515940 131 131 130
-0.72130531 0.39663425 1.85515940 131 131 130
-0.71795821 0.39663425 1.85515940 131 131 130
-0.71461123 0.39663434 1.85515988 130 130 129
-0.71126413 0.39663434 1.85515988 130 130 129
-0.70791698 0.39663434 1.85515988 130 130 130
-0.70456988 0.39663434 1.85515988 131 131 130
-0.70122290 0.39663443 1.85516024 131 131 130
-0.69787574 0.39663443 1.85516024 131 131 131
-0.69452864 0.39663443 1.85516024 132 132 131
-0.69118148 0.39663443 1.85516024 132 132 132
-0.68783456 0.39663452 1.85516071 132 132 132
-0.68448740 0.39663452 1.85516071 133 133 132
-0.68114030 0.39663452 1.85516071 133 133 133
-0.67779332 0.39663461 1.85516107 133 133 133
-0.67444617 0.39663461 1.85516107 133 133 133
-0.67109907 0.39663461 1.85516107 133 133 133
-0.66775191 0.39663461 1.85516107 133 133 133
-0.66440499 0.39663470 1.85516155 133 133 133
-0.66105783 0.39663470 1.85516155 133 133 133
-0.65771073 0.39663470 1.85516155 133 134 133
-0.65436357 0.39663470 1.85516155 133 134 133
-0.65101659 0.39663479 1.85516191 133 134 133
-0.64766943 0.39663479 1.85516191 133 134 133
-0.64432234 0.39663479 1.85516191 133 134 133
-0.64097518 0.39663479 1.85516191 133 134 133
-0.63762820 0.39663485 1.85516226 132 132 132
-0.63428104 0.39663485 1.85516226 132 132 132
-0.63093394 0.39663485 1.85516226 132 132 132
-0.62758678 0.39663485 1.85516226 132 132 132
-0.62423980 0.39663497 1.85516274 132 132 132
-0.62089270 0.39663497 1.85516274 132 132 132
-0.61754555 0.39663497 1.85516274 132 132 132
-0.61419845 0.39663497 1.85516274 132 132 132
-0.61085141 0.39663503 1.85516310 131 131 131
-0.60750431 0.39663503 1.85516310 132 132 132
-0.60415715 0.39663503 1.85516310 132 132 132
-0.60081017 0.39663514 1.85516357 132 132 132
-0.59746307 0.39663514 1.85516357 133 133 132
-0.59411591 0.39663514 1.85516357 132 132 131
-0.59076881 0.39663514 1.85516357 132 132 132
-0.58742183 0.39663526 1.85516417 132 132 132
-0.58407474 0.39663526 1.85516417 133 133 132
-0.58072770 0.39663532 1.85516453 133 133 132
-0.57738054 0.39663532 1.85516453 132 132 131
-0.57403344 0.39663532 1.85516453 132 132 131
-0.57068628 0.39663532 1.85516453 132 132 131
-0.56733930 0.39663544 1.85516500 131 131 131
-0.56399214 0.39663544 1.85516500 131 131 131
-0.56064504 0.39663544 1.85516500 130 130 130
-0.55729800 0.39663550 1.85516536 129 129 129
-0.55395085 0.39663550 1.85516536 129 129 129
-0.55060375 0.39663550 1.85516536 129 129 129
-0.54725659 0.39663550 1.85516536 127 127 127
-0.54390961 0.39663562 1.85516584 127 127 127
-0.54056245 0.39663562 1.85516584 127 127 126
-0.53721535 0.39663562 1.85516584 126 126 126
-0.53386819 0.39663562 1.85516584 126 126 126
-0.53052115 0.39663568 1.85516620 125 125 125
-0.52717400 0.39663568 1.85516620 125 125 125
-0.52382690 0.39663568 1.85516620 125 125 125
-0.52047974 0.39663568 1.85516620 125 125 125
-0.51713276 0.39663580 1.85516667 124 124 124
-0.51378560 0.39663580 1.85516667 124 124 124
-0.51043850 0.39663580 1.85516667 124 124 124
-0.50709134 0.39663580 1.85516667 123 123 123
-0.50374430 0.39663586 1.85516703 123 123 123
-0.50039715 0.39663586 1.85516703 124 124 123
-0.49705002 0.39663586 1.85516703 124 124 123
-0.49370289 0.39663586 1.85516703 124 124 123
-0.49035585 0.39663595 1.85516739 124 124 123
-0.48700869 0.39663595 1.85516739 124 124 123
-0.48366156 0.39663595 1.85516739 124 124 123
-0.48031443 0.39663595 1.85516739 123 123 123
-0.47696739 0.39663604 1.85516787 122 122 122
-0.47362027 0.39663604 1.85516787 122 122 122
-0.47037059 0.39671823 1.85555232 122 122 122
-0.46729833 0.39695233 1.85664725 120 120 120
-0.46422243 0.39718670 1.85774338 119 119 119
-0.46114293 0.39742136 1.85884094 117 117 117
-0.45805976 0.39765626 1.85993969 119 119 119
-0.45497298 0.39789149 1.86103988 121 121 121
-0.45188257 0.39812702 1.86214149 124 124 123
-0.44878843 0.39836279 1.86324418 118 118 118
-0.44569066 0.39859882 1.86434817 119 119 119
-0.44258919 0.39883512 1.86545348 119 119 119
-0.43948406 0.39907175 1.86656022 116 116 115
-0.43637523 0.39930862 1.86766815 118 118 117
-0.43326271 0.39954579 1.86877739 116 116 116
-0.43014652 0.39978325 1.86988807 112 112 112
-0.42702663 0.40002099 1.87100005 114 114 114
-0.42390299 0.40025902 1.87211335 117 117 117
-0.42077562 0.40049729 1.87322783 120 120 120
-0.41764456 0.40073586 1.87434375 113 113 112
-0.41450977 0.40097475 1.87546110 112 112 111
-0.41137123 0.40121391 1.87657964 116 116 116
-0.40822890 0.40145332 1.87769949 121 121 121
-0.40508285 0.40169305 1.87882066 118 118 118
-0.40193304 0.40193304 1.87994325 114 114 114
-0.39877948 0.40217337 1.88106728 111 111 111
-0.39562213 0.40241393 1.88219249 112 112 112
-0.39246103 0.40265480 1.88331914 112 112 112
-0.38929608 0.40289596 1.88444698 111 111 111
-0.38612741 0.40313745 1.88557649 115 115 114
-0.38295493 0.40337917 1.88670719 111 111 111
-0.37977856 0.40362117 1.88783908 110 110 110
-0.37659845 0.40386352 1.88897252 114 114 114
-0.37341455 0.40410614 1.89010739 110 110 110
-0.37022674 0.40434903 1.89124346 109 109 109
-0.36703512 0.40459222 1.89238083 108 108 108
-0.36383966 0.40483567 1.89351964 109 109 109
-0.36064041 0.40507951 1.89466012 111 111 111
-0.35743725 0.40532359 1.89580166 111 111 111
-0.35423023 0.40556791 1.89694452 111 111 110
-0.35101932 0.40581259 1.89808881 113 113 112
-0.34780461 0.40605760 1.89923477 110 110 109
-0.34458593 0.40630281 1.90038180 108 108 107
-0.34136340 0.40654835 1.90153027 110 110 110
-0.33813697 0.40679422 1.90268016 109 109 109
-0.33490664 0.40704039 1.90383160 108 108 108
-0.33167240 0.40728682 1.90498424 107 107 106
-0.32843420 0.40753353 1.90613818 98 98 98
-0.32519212 0.40778059 1.90729368 101 101 100
-0.32194611 0.40802795 1.90845072 105 105 105
-0.31869614 0.40827560 1.90960896 104 104 104
-0.31544220 0.40852353 1.91076863 102 102 102
-0.31218433 0.40877175 1.91192961 103 103 103
-0.30892253 0.40902033 1.91309226 104 104 104
-0.30565673 0.40926918 1.91425622 103 103 103
-0.30238694 0.40951830 1.91542149 100 100 100
-0.29911318 0.40976775 1.91658819 97 97 97
-0.29583544 0.41001755 1.91775656 95 95 95
-0.29255369 0.41026759 1.91892612 96 96 96
-0.28926793 0.41051796 1.92009711 94 94 94
-0.28626269 0.41117731 1.92318106 103 103 103
-0.28337020 0.41201678 1.92710745 114 114 114
-0.28046581 0.41285962 1.93104959 115 115 115
-0.27748108 0.41360387 1.93453074 118 118 118
-0.27447504 0.41433495 1.93795013 123 123 123
-0.27145833 0.41506854 1.94138134 120 120 120
-1.03484607 0.38705510 1.79520595 42 42 42
-1.03225660 0.38729879 1.79633617 44 44 44
-1.02966404 0.38754284 1.79746807 44 44 44
-1.02706790 0.38778710 1.79860103 44 44 44
-1.02446878 0.38803175 1.79973578 45 45 45
-1.02186620 0.38827667 1.80087173 44 44 44
-1.01926041 0.38852191 1.80200911 44 44 44
-1.01665127 0.38876745 1.80314803 44 44 44
-1.01403368 0.38901129 1.80427897 44 44 44
-1.01141071 0.38925466 1.80540776 43 43 43
-1.00878453 0.38949841 1.80653822 43 43 43
-1.00615501 0.38974240 1.80766988 43 43 43
-1.00394011 0.39014909 1.80955613 44 44 44
-1.00246286 0.39084604 1.81278872 44 44 44
-1.00078535 0.39146921 1.81567907 45 45 45
-0.99910229 0.39209434 1.81857848 49 49 49
-0.99741405 0.39272153 1.82148743 53 53 53
-0.99572045 0.39335072 1.82440567 56 56 55
-0.99402130 0.39398190 1.82733321 57 57 57
-0.99342281 0.39505500 1.83231032 60 60 60
-0.99405164 0.39662495 1.83959198 62 62 62
-0.99435115 0.39807358 1.84631085 65 65 65
-0.99465281 0.39953282 1.85307896 68 68 68
-0.99495661 0.40100273 1.85989666 71 71 71
-1.00365543 0.40587759 1.88250673 72 72 72
-1.02992129 0.41791373 1.93833184 70 70 70
-1.05418408 0.42921636 1.99075460 69 69 69
-1.07949340 0.44102380 2.04551888 69 69 69
-1.10623455 0.45349923 2.10338140 67 67 67
-1.13453257 0.46670100 2.16461277 65 65 65
-1.16161609 0.47949263 2.22394180 65 65 65
-1.18790793 0.49204504 2.28216124 64 64 64
-1.19726086 0.49764407 2.30813026 64 64 64
-1.20682895 0.50337195 2.33469677 63 63 63
-1.21662009 0.50923324 2.36188221 63 63 63
-1.22664189 0.51523268 2.38970828 61 62 61
-1.23690248 0.52137512 2.41819763 57 57 57
-1.27126265 0.53775537 2.49417090 49 49 49
-1.28625560 0.54603034 2.53255129 50 50 50
-1.31736565 0.56123060 2.60305190 51 51 51
-1.34193230 0.57374209 2.66108155 50 50 50
-1.36691308 0.58652109 2.72035193 48 48 48
-1.41379142 0.60882193 2.82378578 43 43 43
-1.46606743 0.63361681 2.93878746 36 36 36
-0.85467005 0.39663327 1.83963060 148 148 148
-0.85135114 0.39663339 1.83963108 133 133 133
-0.84803206 0.39663339 1.83963108 133 133 133
-0.84471291 0.39663339 1.83963108 134 134 134
-0.84139383 0.39663339 1.83963108 134 134 134
-0.83807474 0.39663339 1.83963108 121 121 121
-0.83475578 0.39663348 1.83963144 121 121 121
-0.83143669 0.39663348 1.83963144 122 122 122
-0.82811755 0.39663348 1.83963144 122 122 122
-0.82479846 0.39663348 1.83963144 123 123 123
-0.82147950 0.39663354 1.83963180 123 123 123
-0.81816041 0.39663354 1.83963180 124 124 123
-0.81484127 0.39663354 1.83963180 124 124 124
-0.81152219 0.39663354 1.83963180 124 125 124
-0.80820334 0.39663365 1.83963239 124 125 124
-0.80488420 0.39663365 1.83963239 125 125 125
-0.80156511 0.39663365 1.83963239 126 126 126
-0.79824620 0.39663377 1.83963287 126 127 126
-0.79492712 0.39663377 1.83963287 126 127 126
-0.79160798 0.39663377 1.83963287 126 127 126
-0.78828889 0.39663377 1.83963287 126 127 126
-0.78496993 0.39663383 1.83963323 127 127 127
-0.78165078 0.39663383 1.83963323 127 127 127
-0.77833170 0.39663383 1.83963323 127 127 127
-0.77501255 0.39663383 1.83963323 126 126 126
-0.77169365 0.39663395 1.83963370 126 126 126
-0.76837456 0.39663395 1.83963370 126 126 126
-0.76505542 0.39663395 1.83963370 126 126 126
-0.76173633 0.39663395 1.83963370 127 127 127
-0.75841737 0.39663401 1.83963406 128 128 128
-0.75509822 0.39663401 1.83963406 129 129 129
-0.75177914 0.39663401 1.83963406 130 130 130
-0.74846017 0.39663410 1.83963442 131 131 131
-0.74514103 0.39663410 1.83963442 131 131 131
-0.74182194 0.39663410 1.83963442 131 131 131
-0.73850280 0.39663410 1.83963442 131 131 131
-0.73518389 0.39663422 1.83963490 131 131 131
-0.73186481 0.39663422 1.83963490 131 131 131
-0.72854567 0.39663422 1.83963490 132 132 131
-0.72522658 0.39663422 1.83963490 132 132 131
-0.72190762 0.39663428 1.83963525 132 132 131
-0.71858847 0.39663428 1.83963525 132 132 132
-0.71526939 0.39663428 1.83963525 132 132 132
-0.71195024 0.39663428 1.83963525 132 132 132
-0.70863128 0.39663437 1.83963561 132 132 132
-0.70531213 0.39663437 1.83963561 132 132 132
-0.70199305 0.39663437 1.83963561 132 132 132
-0.69867390 0.39663437 1.83963561 131 131 131
-0.69535500 0.39663446 1.83963609 131 131 131
-0.69203585 0.39663446 1.83963609 131 131 131
-0.68871677 0.39663446 1.83963609 131 131 131
-0.68539762 0.39663446 1.83963609 131 131 131
-0.68207866 0.39663455 1.83963645 131 131 131
-0.67875952 0.39663455 1.83963645 131 131 131
-0.67544043 0.39663455 1.83963645 131 131 131
-0.67212147 0.39663464 1.83963692 131 131 131
-0.66880232 0.39663464 1.83963692 132 132 132
-0.66548324 0.39663464 1.83963692 131 131 131
-0.66216409 0.39663464 1.83963692 130 131 130
-0.65884513 0.39663473 1.83963728 130 131 130
-0.65552598 0.39663473 1.83963728 130 131 130
-0.65220690 0.39663473 1.83963728 130 131 130
-0.64888775 0.39663473 1.83963728 130 131 130
-0.64556879 0.39663479 1.83963764 130 131 130
-0.64224982 0.39663491 1.83963811 129 129 129
-0.63893068 0.39663491 1.83963811 129 129 129
-0.63561159 0.39663491 1.83963811 129 129 129
-0.63229245 0.39663491 1.83963811 129 129 129
-0.62897348 0.39663497 1.83963847 129 129 129
-0.62565434 0.39663497 1.83963847 129 129 129
-0.62233520 0.39663497 1.83963847 128 128 128
-0.61901611 0.39663497 1.83963847 129 129 129
-0.61569709 0.39663506 1.83963883 129 129 129
-0.61237800 0.39663506 1.83963883 129 129 129
-0.60905886 0.39663506 1.83963883 129 129 129
-0.60573971 0.39663506 1.83963883 129 129 129
-0.60242075 0.39663514 1.83963931 129 129 129
-0.59910166 0.39663514 1.83963931 129 129 129
-0.59578252 0.39663514 1.83963931 129 129 129
-0.59246337 0.39663514 1.83963931 128 128 128
-0.58914441 0.39663523 1.83963966 128 128 128
-0.58582526 0.39663523 1.83963966 129 129 128
-0.58250612 0.39663523 1.83963966 129 129 129
-0.57918704 0.39663523 1.83963966 129 129 128
-0.57586807 0.39663532 1.83964014 129 129 128
-0.57254893 0.39663532 1.83964014 128 128 128
-0.56922978 0.39663532 1.83964014 128 128 128
-0.56591070 0.39663532 1.83964014 127 127 127
-0.56259167 0.39663541 1.83964050 127 127 127
-0.55927253 0.39663541 1.83964050 127 127 127
-0.55595338 0.39663541 1.83964050 127 127 127
-0.55263442 0.39663550 1.83964086 125 125 125
-0.54931527 0.39663550 1.83964086 125 125 125
-0.54599613 0.39663550 1.83964086 125 125 125
-0.54267699 0.39663550 1.83964086 125 125 125
-0.53935802 0.39663559 1.83964133 124 124 124
-0.53603888 0.39663559 1.83964133 124 124 124
-0.53271979 0.39663559 1.83964133 123 123 123
-0.52940065 0.39663559 1.83964133 124 124 124
-0.52608162 0.39663568 1.83964169 122 122 122
-0.52276248 0.39663568 1.83964169 122 122 122
-0.51944339 0.39663568 1.83964169 122 122 122
-0.51612425 0.39663568 1.83964169 122 122 122
-0.51280522 0.39663577 1.83964217 122 122 122
-0.50948614 0.39663577 1.83964217 123 123 123
-0.50621140 0.39667055 1.83980346 122 122 122
-0.50318617 0.39690265 1.84087992 119 119 119
-0.50015748 0.39713502 1.84195769 122 122 122
-0.49712521 0.39736766 1.84303665 123 123 122
-0.49408937 0.39760053 1.84411681 122 122 122
-0.49104998 0.39783370 1.84519827 117 117 117
-0.48800701 0.39806715 1.84628105 115 115 115
-0.48496047 0.39830086 1.84736502 117 117 117
-0.48191038 0.39853486 1.84845042 121 121 121
-0.47885668 0.39876914 1.84953701 121 121 121
-0.47579938 0.39900368 1.85062480 118 118 118
-0.47273847 0.39923850 1.85171390 119 119 118
-0.46967402 0.39947361 1.85280442 120 120 119
-0.46660590 0.39970899 1.85389614 121 121 121
-0.46353418 0.39994463 1.85498905 118 118 118
-0.46045882 0.40018055 1.85608327 115 115 115
-0.45737988 0.40041682 1.85717905 112 113 112
-0.45429724 0.40065330 1.85827589 114 114 114
-0.45121098 0.40089005 1.85937393 118 118 118
-0.44812107 0.40112710 1.86047339 116 116 116
-0.44502753 0.40136445 1.86157429 107 107 107
-0.44193026 0.40160203 1.86267626 111 111 111
-0.43882939 0.40183994 1.86377966 113 113 113
-0.43572485 0.40207815 1.86488450 111 111 110
-0.43261656 0.40231657 1.86599040 111 111 111
-0.42950460 0.40255532 1.86709762 109 109 109
-0.42638898 0.40279433 1.86820626 107 107 106
-0.42326966 0.40303367 1.86931634 113 113 113
-0.42014658 0.40327325 1.87042749 114 114 114
-0.41701984 0.40351310 1.87154007 112 112 112
-0.41388935 0.40375328 1.87265396 110 110 110
-0.41075516 0.40399376 1.87376928 113 113 113
-0.40761718 0.40423447 1.87488580 114 114 114
-0.40447548 0.40447548 1.87600362 111 111 111
-0.40133002 0.40471676 1.87712276 110 110 110
-0.39818081 0.40495837 1.87824333 109 109 108
-0.39502788 0.40520027 1.87936532 109 109 108
-0.39187115 0.40544245 1.88048851 108 108 108
-0.38871065 0.40568492 1.88161314 107 107 107
-0.38554636 0.40592766 1.88273895 106 106 106
-0.38237831 0.40617073 1.88386643 105 105 105
-0.37920642 0.40641406 1.88499498 104 104 104
-0.37603074 0.40665767 1.88612485 106 106 106
-0.37285125 0.40690157 1.88725615 108 108 108
-0.36966798 0.40714583 1.88838899 100 100 100
-0.36648083 0.40739033 1.88952303 101 101 101
-0.36328986 0.40763512 1.89065838 103 103 103
-0.36009508 0.40788022 1.89179516 103 103 103
-0.35689649 0.40812564 1.89293349 99 99 99
-0.35369396 0.40837130 1.89407289 100 100 99
-0.35048762 0.40861726 1.89521372 103 103 102
-0.34727740 0.40886354 1.89635599 102 102 101
-0.34406337 0.40911016 1.89749980 100 100 100
-0.34084541 0.40935704 1.89864480 100 100 100
-0.33762354 0.40960419 1.89979112 101 101 101
-0.33439779 0.40985164 1.90093887 99 99 99
-0.33116817 0.41009945 1.90208817 98 98 97
-0.32793462 0.41034752 1.90323877 95 95 94
-0.32469717 0.41059586 1.90439069 89 89 89
-0.32145575 0.41084450 1.90554392 92 92 92
-0.31821045 0.41109350 1.90669882 94 94 94
-0.31496122 0.41134280 1.90785503 93 93 93
-0.31170800 0.41159233 1.90901244 99 99 99
-0.30845088 0.41184223 1.91017139 96 96 96
-0.30518979 0.41209242 1.91133189 94 94 94
-0.30192474 0.41234291 1.91249371 93 93 92
-0.29865569 0.41259369 1.91365683 92 92 92
-0.29538268 0.41284478 1.91482139 89 89 88
-0.29210570 0.41309622 1.91598761 87 87 87
-0.28882471 0.41334793 1.91715503 88 88 88
-0.28573167 0.41387796 1.91961348 91 91 91
-0.28284347 0.41472140 1.92352533 98 98 98
-0.27994347 0.41556826 1.92745316 100 100 100
-0.27702770 0.41641268 1.93136978 109 109 109
-0.27402574 0.41714746 1.93477774 115 115 115
-0.27101320 0.41788489 1.93819797 116 116 116
-0.26798999 0.41862488 1.94163013 117 117 117
-0.26619980 0.42133608 1.95420504 149 149 149
-1.03478503 0.39027104 1.79510009 43 43 43
-1.03219569 0.39051676 1.79623020 43 43 43
-1.02960324 0.39076281 1.79736197 43 43 43
-1.02700734 0.39100909 1.79849482 43 44 43
-1.02440822 0.39125577 1.79962945 44 44 44
-1.02180576 0.39150268 1.80076516 43 43 43
-1.01920009 0.39174995 1.80190241 43 43 43
-1.01659107 0.39199752 1.80304122 44 44 44
-1.01397645 0.39224452 1.80417728 42 42 42
-1.01135361 0.39248991 1.80530596 41 41 40
-1.00872767 0.39273566 1.80643630 40 40 40
-1.00609827 0.39298165 1.80756783 40 40 40
-1.00384617 0.39337710 1.80938673 41 41 41
-1.00235224 0.39407322 1.81258857 42 42 41
-1.00067472 0.39470145 1.81547832 43 43 43
-0.99899161 0.39533168 1.81837702 48 48 48
-0.99730343 0.39596397 1.82128537 52 52 52
-0.99560976 0.39659828 1.82420290 55 55 54
-0.99391067 0.39723462 1.82712984 61 61 61
-0.99320740 0.39827451 1.83191299 61 61 61
-0.99380040 0.39984289 1.83912694 62 62 61
-0.99409890 0.40130290 1.84584248 64 64 64
-0.99439949 0.40277359 1.85260701 67 67 67
-0.99470234 0.40425509 1.85942137 70 70 70
-1.00251186 0.40880772 1.88036180 70 70 70
-1.02844083 0.42080519 1.93554556 70 70 69
-1.05234158 0.43205166 1.98727512 69 69 69
-1.07755470 0.44391569 2.04184532 68 68 68
-1.10419178 0.45644978 2.09949732 67 67 67
-1.13237679 0.46971223 2.16049957 65 65 65
-1.15956461 0.48265126 2.22001433 64 64 64
-1.18726373 0.49589348 2.28092360 64 64 64
-1.19790781 0.50207961 2.30937743 63 63 63
-1.20748854 0.50786167 2.33597279 63 63 63
-1.21729279 0.51377857 2.36318827 62 62 62
-1.22732818 0.51983494 2.39104533 61 61 61
-1.23760271 0.52603573 2.41956663 56 56 56
-1.27144587 0.54233354 2.49453044 48 48 48
-1.28779209 0.55125737 2.53557658 50 50 50
-1.31869960 0.56650019 2.60568786 50 50 50
-1.34264266 0.57884949 2.66249013 49 49 49
-1.36765289 0.59174925 2.72182417 47 47 47
-1.41382325 0.61393046 2.82384920 40 40 40
-1.46610153 0.63893396 2.93885589 35 35 35
-0.88707548 0.39663303 1.82436275 147 147 147
-0.88378417 0.39663312 1.82436323 132 132 132
-0.88049263 0.39663312 1.82436323 132 132 132
-0.87720108 0.39663312 1.82436323 134 134 134
-0.87390947 0.39663312 1.82436323 119 119 119
-0.87061810 0.39663321 1.82436359 119 119 119
-0.86732656 0.39663321 1.82436359 119 119 119
-0.86403501 0.39663321 1.82436359 120 120 119
-0.86074340 0.39663321 1.82436359 120 120 120
-0.85745203 0.39663327 1.82436395 121 121 120
-0.85416049 0.39663327 1.82436395 121 121 121
-0.85086888 0.39663327 1.82436395 122 122 121
-0.84757733 0.39663327 1.82436395 122 122 121
-0.84428602 0.39663339 1.82436442 122 122 122
-0.84099448 0.39663342 1.82436454 124 124 123
-0.83770293 0.39663342 1.82436454 124 124 123
-0.83441138 0.39663342 1.82436454 124 124 123
-0.83111978 0.39663342 1.82436454 125 125 124
-0.82782847 0.39663351 1.82436502 125 125 124
-0.82453686 0.39663351 1.82436502 125 125 124
-0.82124531 0.39663351 1.82436502 125 125 125
-0.81795394 0.39663360 1.82436538 125 126 125
-0.81466234 0.39663360 1.82436538 125 126 125
-0.81137079 0.39663360 1.82436538 125 126 125
-0.80807924 0.39663360 1.82436538 125 125 124
-0.80478781 0.39663365 1.82436574 125 125 124
-0.80149627 0.39663365 1.82436574 125 125 124
-0.79820466 0.39663365 1.82436574 125 125 124
-0.79491311 0.39663365 1.82436574 125 125 125
-0.79162174 0.39663377 1.82436621 126 126 125
-0.78833020 0.39663377 1.82436621 127 127 127
-0.78503865 0.39663377 1.82436621 128 128 127
-0.78174704 0.39663377 1.82436621 128 128 128
-0.77845567 0.39663386 1.82436657 128 128 128
-0.77516407 0.39663386 1.82436657 128 128 128
-0.77187252 0.39663386 1.82436657 128 128 128
-0.76858097 0.39663386 1.82436657 127 127 127
-0.76528955 0.39663392 1.82436693 128 128 128
-0.76199794 0.39663392 1.82436693 128 128 128
-0.75870639 0.39663392 1.82436693 129 129 129
-0.75541484 0.39663392 1.82436693 129 129 129
-0.75212348 0.39663404 1.82436740 129 129 129
-0.74883187 0.39663404 1.82436740 129 129 129
-0.74554032 0.39663404 1.82436740 129 129 129
-0.74224889 0.39663410 1.82436776 129 129 129
-0.73895735 0.39663410 1.82436776 129 129 129
-0.73566574 0.39663410 1.82436776 130 130 129
-0.73237419 0.39663410 1.82436776 130 130 130
-0.72908276 0.39663419 1.82436812 130 130 129
-0.72579122 0.39663419 1.82436812 131 131 130
-0.72249961 0.39663419 1.82436812 131 131 130
-0.71920806 0.39663419 1.82436812 131 131 130
-0.71591669 0.39663428 1.82436860 131 131 130
-0.71262509 0.39663428 1.82436860 131 131 130
-0.70933354 0.39663428 1.82436860 130 130 130
-0.70604193 0.39663428 1.82436860 130 130 130
-0.70275050 0.39663437 1.82436895 130 130 130
-0.69945908 0.39663446 1.82436931 130 130 130
-0.69616753 0.39663446 1.82436931 129 129 129
-0.69287592 0.39663446 1.82436931 129 129 129
-0.68958437 0.39663446 1.82436931 129 129 129
-0.68629295 0.39663455 1.82436979 129 129 129
-0.68300140 0.39663455 1.82436979 129 129 129
-0.67970985 0.39663455 1.82436979 129 129 129
-0.67641824 0.39663455 1.82436979 129 129 129
-0.67312682 0.39663464 1.82437015 128 128 128
