1.08312 0.279152 0.327568
1.08127 0.282249 0.327927
1.07941 0.285343 0.328286
1.07756 0.288433 0.328645
1.07571 0.291521 0.329003
1.07365 0.294226 0.329192
1.07135 0.296465 0.329174
1.06904 0.298705 0.329156
1.06674 0.300944 0.329138
1.06443 0.303183 0.329119
1.06213 0.305423 0.329101
1.05982 0.307663 0.329083
1.05751 0.309902 0.329065
1.05521 0.312142 0.329047
1.0529 0.314382 0.329028
1.0506 0.316622 0.32901
1.04829 0.318862 0.328992
1.04598 0.321103 0.328974
1.04368 0.323343 0.328956
1.04137 0.325584 0.328938
1.03906 0.327824 0.328919
1.03676 0.330065 0.328901
1.03445 0.332306 0.328883
1.03214 0.334547 0.328865
1.02983 0.336788 0.328847
1.02753 0.339029 0.328828
1.02522 0.341271 0.32881
1.02291 0.343512 0.328792
1.0206 0.345754 0.328774
1.0183 0.347995 0.328756
1.01599 0.350237 0.328737
1.01368 0.352479 0.328719
1.01137 0.354721 0.328701
1.00906 0.356963 0.328683
1.00675 0.359205 0.328665
1.00445 0.361448 0.328646
1.00214 0.36369 0.328628
0.999829 0.365932 0.32861
0.99752 0.368175 0.328592
0.995211 0.370418 0.328574
0.992901 0.372661 0.328555
0.990592 0.374904 0.328537
0.988283 0.377147 0.328519
0.985973 0.37939 0.328501
0.983664 0.381634 0.328482
0.981354 0.383877 0.328464
0.979044 0.38612 0.328446
0.976734 0.388364 0.328428
0.974424 0.390608 0.32841
0.972114 0.392852 0.328391
0.969804 0.395096 0.328373
0.967493 0.39734 0.328355
0.965183 0.399584 0.328337
0.962872 0.401829 0.328319
0.960561 0.404073 0.3283
0.958251 0.406318 0.328282
0.955939 0.408562 0.328264
0.953628 0.410807 0.328246
0.951317 0.413052 0.328227
0.949006 0.415297 0.328209
0.946694 0.417542 0.328191
0.944383 0.419788 0.328173
0.942071 0.422033 0.328155
0.939759 0.424279 0.328136
0.937448 0.426524 0.328118
0.935135 0.42877 0.3281
0.932823 0.431016 0.328082
0.930511 0.433262 0.328063
0.928199 0.435507 0.328045
0.925886 0.437754 0.328027
0.923574 0.44 0.328009
0.921261 0.442246 0.327991
0.918948 0.444493 0.327972
0.916635 0.44674 0.327954
0.914322 0.448986 0.327936
0.912009 0.451233 0.327918
0.909695 0.45348 0.327899
0.907382 0.455727 0.327881
0.905068 0.457974 0.327863
0.902755 0.460221 0.327845
0.900441 0.462469 0.327826
0.898127 0.464716 0.327808
0.895813 0.466964 0.32779
0.893499 0.469212 0.327772
0.891185 0.471459 0.327753
0.888871 0.473707 0.327735
0.886556 0.475955 0.327717
0.884241 0.478204 0.327699
0.881927 0.480452 0.32768
0.879612 0.4827 0.327662
0.877297 0.484949 0.327644
0.874982 0.487197 0.327626
0.872667 0.489446 0.327607
0.870352 0.491695 0.327589
0.868036 0.493944 0.327571
0.865721 0.496193 0.327553
0.863405 0.498442 0.327534
0.861089 0.500692 0.327516
0.858774 0.502941 0.327498
0.856457 0.505191 0.327479
0.854141 0.50744 0.327461
0.851825 0.50969 0.327443
0.849509 0.51194 0.327425
0.847192 0.51419 0.327406
0.844876 0.51644 0.327388
0.842559 0.51869 0.32737
0.840242 0.52094 0.327352
0.837926 0.523191 0.327333
0.835608 0.525441 0.327315
0.833291 0.527692 0.327297
0.830974 0.529943 0.327279
0.828657 0.532194 0.32726
0.826339 0.534445 0.327242
0.824022 0.536696 0.327224
0.821704 0.538947 0.327206
0.819386 0.541198 0.327187
0.817068 0.54345 0.327169
0.81475 0.545701 0.327151
0.812432 0.547953 0.327132
0.810114 0.550205 0.327114
0.807795 0.552457 0.327096
0.805477 0.554709 0.327077
0.803158 0.556961 0.327059
0.800839 0.559213 0.327041
0.79852 0.561465 0.327023
0.796202 0.563718 0.327004
0.793882 0.56597 0.326986
0.791563 0.568223 0.326968
0.789244 0.570476 0.32695
0.786924 0.572729 0.326931
0.784605 0.574982 0.326913
0.782285 0.577235 0.326895
0.779965 0.579488 0.326876
0.777645 0.581741 0.326858
0.775325 0.583995 0.32684
0.773005 0.586249 0.326821
0.770685 0.588502 0.326803
0.768365 0.590756 0.326785
0.766044 0.59301 0.326767
0.763723 0.595264 0.326748
0.761403 0.597518 0.32673
0.759082 0.599772 0.326712
0.756761 0.602027 0.326693
0.75444 0.604281 0.326675
0.752119 0.606536 0.326657
0.749797 0.60879 0.326638
0.747476 0.611045 0.32662
0.745154 0.6133 0.326602
0.742833 0.615555 0.326583
0.740511 0.617811 0.326565
0.738189 0.620066 0.326547
0.735867 0.622321 0.326529
0.733545 0.624577 0.32651
0.731223 0.626832 0.326492
0.7289 0.629088 0.326474
0.726578 0.631344 0.326455
0.724255 0.6336 0.326437
0.721932 0.635856 0.326419
0.71961 0.638112 0.3264
0.717287 0.640368 0.326382
0.714964 0.642625 0.326364
0.71264 0.644881 0.326345
0.710317 0.647138 0.326327
0.707994 0.649395 0.326309
0.70567 0.651652 0.32629
0.703347 0.653909 0.326272
0.701023 0.656166 0.326254
0.698699 0.658423 0.326236
0.696375 0.66068 0.326217
0.694051 0.662938 0.326199
0.691727 0.665195 0.32618
0.689402 0.667453 0.326162
0.687078 0.669711 0.326144
0.684753 0.671968 0.326126
0.682429 0.674226 0.326107
0.680104 0.676485 0.326089
0.677779 0.678743 0.32607
0.675454 0.681001 0.326052
0.673129 0.68326 0.326034
0.670803 0.685518 0.326015
0.668478 0.687777 0.325997
0.666152 0.690036 0.325979
0.663827 0.692294 0.32596
0.661501 0.694554 0.325942
0.659175 0.696813 0.325924
0.656849 0.699072 0.325905
0.654523 0.701331 0.325887
0.652197 0.703591 0.325869
0.649871 0.70585 0.32585
0.647544 0.70811 0.325832
0.645218 0.71037 0.325814
0.642891 0.71263 0.325795
0.640564 0.71489 0.325777
0.638237 0.71715 0.325759
0.63591 0.71941 0.32574
0.633583 0.72167 0.325722
0.631256 0.723931 0.325704
0.628928 0.726192 0.325685
0.626601 0.728452 0.325667
0.624273 0.730713 0.325649
0.621946 0.732974 0.32563
0.619618 0.735235 0.325612
0.61729 0.737496 0.325594
0.614962 0.739758 0.325575
0.612633 0.742019 0.325557
0.610305 0.744281 0.325538
0.607977 0.746542 0.32552
0.605648 0.748804 0.325502
0.60332 0.751066 0.325483
0.600991 0.753328 0.325465
0.598662 0.75559 0.325447
0.596333 0.757852 0.325428
0.594004 0.760114 0.32541
0.591674 0.762377 0.325391
0.589345 0.764639 0.325373
0.587016 0.766902 0.325355
0.584686 0.769165 0.325336
0.582356 0.771427 0.325318
0.580026 0.77369 0.3253
0.577697 0.775954 0.325281
0.575367 0.778217 0.325263
0.573036 0.78048 0.325245
0.570706 0.782744 0.325226
0.568376 0.785007 0.325208
0.566045 0.787271 0.325189
0.563714 0.789535 0.325171
0.561384 0.791798 0.325153
0.559053 0.794063 0.325134
0.556722 0.796327 0.325116
0.554391 0.798591 0.325098
0.552059 0.800855 0.325079
0.549728 0.80312 0.325061
0.547397 0.805384 0.325042
0.545065 0.807649 0.325024
0.542733 0.809914 0.325006
0.540401 0.812179 0.324987
0.53807 0.814444 0.324969
0.535737 0.816709 0.32495
0.533405 0.818974 0.324932
0.531073 0.821239 0.324914
0.52874 0.823505 0.324895
0.526408 0.825771 0.324877
0.524075 0.828036 0.324858
0.521743 0.830302 0.32484
0.51941 0.832568 0.324822
0.517077 0.834834 0.324803
0.514744 0.8371 0.324785
0.51241 0.839367 0.324766
0.510077 0.841633 0.324748
0.507744 0.843899 0.32473
0.50541 0.846166 0.324711
0.503076 0.848433 0.324693
0.500742 0.8507 0.324674
0.498409 0.852967 0.324656
0.496075 0.855234 0.324638
0.49374 0.857501 0.324619
0.491406 0.859768 0.324601
0.489072 0.862036 0.324582
0.486737 0.864303 0.324564
0.484403 0.866571 0.324546
0.482068 0.868839 0.324527
0.479733 0.871106 0.324509
0.477398 0.873375 0.32449
0.475063 0.875643 0.324472
0.472727 0.877911 0.324453
0.470392 0.880179 0.324435
0.468057 0.882448 0.324417
0.465721 0.884716 0.324398
0.463385 0.886985 0.32438
0.46105 0.889254 0.324361
0.458714 0.891523 0.324343
0.456378 0.893792 0.324325
0.454042 0.896061 0.324306
0.451705 0.89833 0.324288
0.449369 0.900599 0.324269
0.447032 0.902869 0.324251
0.444696 0.905138 0.324232
0.442359 0.907408 0.324214
0.440022 0.909678 0.324196
0.437685 0.911948 0.324177
0.435348 0.914218 0.324159
0.433011 0.916488 0.32414
0.430523 0.918659 0.32405
0.427399 0.92041 0.323654
0.424271 0.922164 0.323258
0.42114 0.923919 0.322862
0.418006 0.925676 0.322465
0.414868 0.927435 0.322068
0.411727 0.929196 0.32167
0.408583 0.930959 0.321272
0.405434 0.932724 0.320873
0.402283 0.93449 0.320474
0.399291 0.936363 0.320152
0.396376 0.938288 0.319867
0.393459 0.940214 0.319581
0.390539 0.942141 0.319296
-0.342638 0.485316 -0.0244105
-0.34603 0.488703 -0.0244105
-0.349422 0.492091 -0.0244105
-0.352815 0.495478 -0.0244105
-0.356207 0.498866 -0.0244105
-0.359599 0.502253 -0.0244105
-0.362991 0.50564 -0.0244105
-0.366384 0.509028 -0.0244105
-0.369776 0.512415 -0.0244105
-0.373168 0.515803 -0.0244105
-0.37656 0.51919 -0.0244105
-0.379952 0.522578 -0.0244105
-0.383345 0.525965 -0.0244104
-0.386737 0.529353 -0.0244104
-0.390129 0.53274 -0.0244104
-0.393521 0.536128 -0.0244104
-0.396914 0.539515 -0.0244104
-0.400306 0.542903 -0.0244104
-0.403698 0.54629 -0.0244104
-0.40709 0.549677 -0.0244104
-0.410483 0.553065 -0.0244104
-0.413875 0.556452 -0.0244104
-0.417267 0.55984 -0.0244104
-0.420659 0.563227 -0.0244104
-0.424052 0.566615 -0.0244104
-0.427444 0.570002 -0.0244104
-0.430836 0.57339 -0.0244104
-0.434228 0.576777 -0.0244104
-0.43762 0.580165 -0.0244104
-0.441013 0.583552 -0.0244104
-0.444405 0.586939 -0.0244104
-0.447797 0.590327 -0.0244104
-0.451189 0.593714 -0.0244104
-0.454582 0.597102 -0.0244104
-0.457974 0.600489 -0.0244104
-0.461366 0.603877 -0.0244104
-0.464758 0.607264 -0.0244104
-0.468151 0.610652 -0.0244104
-0.471543 0.614039 -0.0244103
-0.474935 0.617427 -0.0244103
-0.478327 0.620814 -0.0244103
-0.48172 0.624201 -0.0244103
-0.485112 0.627589 -0.0244103
-0.488504 0.630976 -0.0244103
-0.491896 0.634364 -0.0244103
-0.495288 0.637751 -0.0244103
-0.498681 0.641139 -0.0244103
-0.502073 0.644526 -0.0244103
-0.505465 0.647914 -0.0244103
-0.508857 0.651301 -0.0244103
-0.51225 0.654689 -0.0244103
-0.515642 0.658076 -0.0244103
-0.519034 0.661463 -0.0244103
-0.522426 0.664851 -0.0244103
-0.525819 0.668238 -0.0244103
-0.529211 0.671626 -0.0244103
-0.532603 0.675013 -0.0244103
-0.535995 0.678401 -0.0244103
-0.539388 0.681788 -0.0244103
-0.54278 0.685176 -0.0244103
-0.546172 0.688563 -0.0244103
-0.549564 0.691951 -0.0244103
-0.552956 0.695338 -0.0244103
-0.556349 0.698726 -0.0244103
-0.559741 0.702113 -0.0244103
-0.563133 0.7055 -0.0244102
-0.566525 0.708888 -0.0244102
-0.569918 0.712275 -0.0244104
-0.57331 0.715663 -0.0244104
-0.576702 0.71905 -0.0244104
-0.580095 0.722438 -0.0244103
-0.583487 0.725825 -0.0244103
-0.586879 0.729213 -0.0244103
-0.590271 0.7326 -0.0244103
-0.593664 0.735987 -0.0244103
-0.597056 0.739375 -0.0244103
-0.600448 0.742762 -0.0244103
-0.60384 0.74615 -0.0244103
-0.607233 0.749537 -0.0244103
-0.610625 0.752925 -0.0244103
-0.614017 0.756312 -0.0244103
-0.617409 0.7597 -0.0244103
-0.620801 0.763087 -0.0244103
-0.624194 0.766475 -0.0244103
-0.627586 0.769862 -0.0244103
-0.630978 0.773249 -0.0244103
-0.63437 0.776637 -0.0244103
-0.637763 0.780024 -0.0244103
-0.641155 0.783412 -0.0244103
-0.644547 0.786799 -0.0244103
-0.647939 0.790187 -0.0244103
-0.651332 0.793574 -0.0244103
-0.654724 0.796962 -0.0244103
-0.658116 0.800349 -0.0244103
-0.661508 0.803737 -0.0244103
-0.6649 0.807124 -0.0244103
-0.668293 0.810512 -0.0244102
-0.671685 0.813899 -0.0244102
-0.675077 0.817286 -0.0244102
-0.678469 0.820674 -0.0244102
-0.681862 0.824061 -0.0244102
-0.685254 0.827449 -0.0244102
-0.688646 0.830836 -0.0244102
-0.692038 0.834224 -0.0244102
-0.695431 0.837611 -0.0244102
-0.698823 0.840999 -0.0244102
-0.702215 0.844386 -0.0244102
-0.705607 0.847774 -0.0244102
-0.709 0.851161 -0.0244102
-0.712392 0.854548 -0.0244102
-0.715784 0.857936 -0.0244102
-0.719176 0.861323 -0.0244102
-0.722568 0.864711 -0.0244102
-0.725961 0.868098 -0.0244102
-0.729353 0.871486 -0.0244102
-0.732745 0.874873 -0.0244102
-0.736137 0.878261 -0.0244102
-0.73953 0.881648 -0.0244102
-0.742922 0.885036 -0.0244102
-0.746314 0.888423 -0.0244102
-0.749706 0.89181 -0.0244102
-0.753099 0.895198 -0.0244102
-0.756491 0.898585 -0.0244102
-0.759883 0.901973 -0.0244101
-0.763275 0.90536 -0.0244101
-0.766668 0.908748 -0.0244101
-0.77006 0.912135 -0.0244101
-0.773452 0.915523 -0.0244101
-0.776844 0.91891 -0.0244101
-0.780236 0.922298 -0.0244101
-0.783629 0.925685 -0.0244101
-0.787021 0.929072 -0.0244101
-0.790413 0.93246 -0.0244101
-0.793805 0.935847 -0.0244101
-0.797198 0.939235 -0.0244101
-0.80059 0.942622 -0.0244101
-0.803982 0.94601 -0.0244101
-0.807374 0.949397 -0.0244101
-0.810767 0.952785 -0.0244101
-0.814159 0.956172 -0.0244101
-0.817551 0.95956 -0.0244101
-0.820943 0.962947 -0.0244101
-0.824336 0.966335 -0.0244101
-0.827728 0.969722 -0.0244101
-0.83112 0.973109 -0.0244101
-0.834512 0.976497 -0.0244101
-0.837905 0.979884 -0.0244101
-0.841297 0.983272 -0.0244101
-0.844689 0.986659 -0.0244101
-0.848081 0.990047 -0.02441
-0.851473 0.993434 -0.02441
-0.854866 0.996822 -0.02441
-0.858258 1.00021 -0.02441
-0.86165 1.0036 -0.02441
-0.865042 1.00698 -0.02441
-0.868435 1.01037 -0.02441
-0.871827 1.01376 -0.02441
-0.875219 1.01715 -0.02441
-0.878611 1.02053 -0.02441
-0.882004 1.02392 -0.02441
-0.885396 1.02731 -0.02441
-0.888788 1.0307 -0.02441
-0.89218 1.03408 -0.02441
-0.895573 1.03747 -0.02441
-0.898965 1.04086 -0.02441
-0.902357 1.04425 -0.02441
-0.905749 1.04763 -0.02441
-0.909141 1.05102 -0.02441
-0.912534 1.05441 -0.02441
-0.915926 1.0578 -0.02441
-0.919318 1.06118 -0.02441
-0.92271 1.06457 -0.02441
-0.926103 1.06796 -0.02441
-0.929495 1.07135 -0.02441
-0.932887 1.07473 -0.02441
-0.936279 1.07812 -0.0244099
-0.939672 1.08151 -0.0244099
-0.943064 1.0849 -0.0244099
-0.946456 1.08828 -0.0244099
-0.949848 1.09167 -0.0244099
-0.953241 1.09506 -0.0244099
-0.956633 1.09845 -0.0244099
-0.960025 1.10183 -0.0244099
-0.963417 1.10522 -0.0244099
-0.966809 1.10861 -0.0244099
-0.970202 1.112 -0.0244099
-0.973594 1.11538 -0.0244099
-0.976986 1.11877 -0.0244099
-0.980378 1.12216 -0.0244099
-0.983771 1.12554 -0.0244099
-0.987163 1.12893 -0.0244099
-0.990555 1.13232 -0.0244099
-0.993947 1.13571 -0.0244099
-0.99734 1.13909 -0.0244099
1.17388 -1.01211 -0.0243014
1.17051 -1.00874 -0.0243014
1.16713 -1.00537 -0.0243014
1.16375 -1.002 -0.0243014
1.16037 -0.998626 -0.0243014
1.157 -0.995254 -0.0243014
1.15362 -0.991882 -0.0243014
1.15024 -0.98851 -0.0243014
1.14687 -0.985137 -0.0243014
1.14349 -0.981765 -0.0243014
1.14011 -0.978393 -0.0243014
1.13674 -0.975021 -0.0243014
1.13336 -0.971649 -0.0243014
1.12998 -0.968277 -0.0243014
1.12661 -0.964905 -0.0243014
1.12323 -0.961532 -0.0243014
1.11985 -0.95816 -0.0243014
1.11647 -0.954788 -0.0243014
1.1131 -0.951416 -0.0243014
1.10972 -0.948044 -0.0243013
1.10634 -0.944672 -0.0243013
1.10297 -0.941299 -0.0243013
1.09959 -0.937927 -0.0243013
1.09621 -0.934555 -0.0243013
1.09284 -0.931183 -0.0243013
1.08946 -0.927811 -0.0243013
1.08608 -0.924439 -0.0243013
1.08271 -0.921066 -0.0243013
1.07933 -0.917694 -0.0243013
1.07595 -0.914322 -0.0243013
1.07257 -0.91095 -0.0243013
1.0692 -0.907578 -0.0243013
1.06582 -0.904206 -0.0243013
1.06244 -0.900833 -0.0243013
1.05907 -0.897461 -0.0243013
1.05569 -0.894089 -0.0243013
1.05231 -0.890717 -0.0243013
1.04894 -0.887345 -0.0243013
1.04556 -0.883973 -0.0243013
1.04218 -0.8806 -0.0243013
1.03881 -0.877228 -0.0243013
1.03543 -0.873856 -0.0243013
1.03205 -0.870484 -0.0243013
1.02867 -0.867112 -0.0243013
1.0253 -0.86374 -0.0243013
1.02192 -0.860368 -0.0243012
1.01854 -0.856995 -0.0243012
1.01517 -0.853623 -0.0243012
1.01179 -0.850251 -0.0243012
1.00841 -0.846879 -0.0243012
1.00504 -0.843507 -0.0243012
1.00166 -0.840135 -0.0243012
0.998282 -0.836762 -0.0243012
0.994906 -0.83339 -0.0243012
0.991529 -0.830018 -0.0243012
0.988152 -0.826646 -0.0243012
0.984775 -0.823274 -0.0243012
0.981398 -0.819902 -0.0243012
0.978021 -0.816529 -0.0243012
0.974644 -0.813157 -0.0243012
0.971267 -0.809785 -0.0243012
0.96789 -0.806413 -0.0243012
0.964513 -0.803041 -0.0243012
0.961136 -0.799669 -0.0243012
0.957759 -0.796296 -0.0243012
0.954382 -0.792924 -0.0243012
0.951006 -0.789552 -0.0243012
0.947629 -0.78618 -0.0243012
0.944252 -0.782808 -0.0243012
0.940875 -0.779436 -0.0243012
0.937498 -0.776063 -0.0243012
0.934121 -0.772691 -0.0243012
0.930744 -0.769319 -0.0243011
0.927367 -0.765947 -0.0243011
0.92399 -0.762575 -0.0243013
0.920613 -0.759203 -0.0243013
0.917236 -0.755831 -0.0243013
0.913859 -0.752459 -0.0243012
0.910482 -0.749086 -0.0243012
0.907106 -0.745714 -0.0243012
0.903729 -0.742342 -0.0243012
0.900352 -0.73897 -0.0243012
0.896975 -0.735598 -0.0243012
0.893598 -0.732226 -0.0243012
0.890221 -0.728853 -0.0243012
0.886844 -0.725481 -0.0243012
0.883467 -0.722109 -0.0243012
0.88009 -0.718737 -0.0243012
0.876713 -0.715365 -0.0243012
0.873336 -0.711993 -0.0243012
0.869959 -0.70862 -0.0243012
0.866582 -0.705248 -0.0243012
0.863206 -0.701876 -0.0243012
0.859829 -0.698504 -0.0243012
0.856452 -0.695132 -0.0243012
0.853075 -0.69176 -0.0243012
0.849698 -0.688388 -0.0243012
0.846321 -0.685015 -0.0243012
0.842944 -0.681643 -0.0243012
0.839567 -0.678271 -0.0243012
0.83619 -0.674899 -0.0243012
0.832813 -0.671527 -0.0243012
0.829436 -0.668155 -0.0243012
0.82606 -0.664782 -0.0243012
0.822683 -0.66141 -0.0243011
0.819306 -0.658038 -0.0243011
0.815929 -0.654666 -0.0243011
0.812552 -0.651294 -0.0243011
0.809175 -0.647922 -0.0243011
0.805798 -0.644549 -0.0243011
0.802421 -0.641177 -0.0243011
0.799044 -0.637805 -0.0243011
0.795667 -0.634433 -0.0243011
0.79229 -0.631061 -0.0243011
0.788913 -0.627689 -0.0243011
0.785536 -0.624316 -0.0243011
0.78216 -0.620944 -0.0243011
0.778783 -0.617572 -0.0243011
0.775406 -0.6142 -0.0243011
0.772029 -0.610828 -0.0243011
0.768652 -0.607456 -0.0243011
0.765275 -0.604083 -0.0243011
0.761898 -0.600711 -0.0243011
0.758521 -0.597339 -0.0243011
0.755144 -0.593967 -0.0243011
0.751767 -0.590595 -0.0243011
0.74839 -0.587223 -0.0243011
0.745013 -0.58385 -0.0243011
0.741636 -0.580478 -0.0243011
0.73826 -0.577106 -0.0243011
0.734883 -0.573734 -0.024301
0.731506 -0.570362 -0.024301
0.728129 -0.56699 -0.024301
0.724752 -0.563617 -0.024301
0.721375 -0.560245 -0.024301
0.717998 -0.556873 -0.024301
0.714621 -0.553501 -0.024301
0.711244 -0.550129 -0.024301
0.707867 -0.546757 -0.024301
0.70449 -0.543384 -0.024301
0.701113 -0.540012 -0.024301
1.1005 0.252267 0.321555
1.09849 0.255124 0.321802
1.09649 0.257979 0.322049
1.09448 0.260831 0.322296
1.09248 0.263682 0.322542
1.09059 0.266755 0.322888
1.08873 0.269864 0.32325
1.08686 0.27297 0.323612
1.085 0.276073 0.323973
1.08314 0.279173 0.324335
1.08129 0.28227 0.324695
1.07943 0.285364 0.325056
1.07758 0.288454 0.325416
1.07573 0.291542 0.325776
1.07367 0.294247 0.325966
1.07137 0.296486 0.325947
1.06906 0.298726 0.325929
1.06676 0.300965 0.325911
1.06445 0.303204 0.325893
1.06215 0.305444 0.325874
1.05984 0.307684 0.325856
1.05753 0.309923 0.325838
1.05523 0.312163 0.32582
1.05292 0.314403 0.325801
1.05062 0.316643 0.325783
1.04831 0.318883 0.325765
1.046 0.321124 0.325747
1.0437 0.323364 0.325728
1.04139 0.325605 0.32571
1.03908 0.327845 0.325692
1.03678 0.330086 0.325673
1.03447 0.332327 0.325655
1.03216 0.334568 0.325637
1.02985 0.336809 0.325619
1.02755 0.33905 0.3256
1.02524 0.341292 0.325582
1.02293 0.343533 0.325564
1.02062 0.345775 0.325546
1.01832 0.348016 0.325527
1.01601 0.350258 0.325509
1.0137 0.3525 0.325491
1.01139 0.354742 0.325472
1.00908 0.356984 0.325454
1.00678 0.359226 0.325436
1.00447 0.361469 0.325418
1.00216 0.363711 0.325399
0.99985 0.365954 0.325381
0.997541 0.368196 0.325363
0.995232 0.370439 0.325344
0.992922 0.372682 0.325326
0.990613 0.374925 0.325308
0.988304 0.377168 0.32529
0.985994 0.379411 0.325271
0.983685 0.381655 0.325253
0.981375 0.383898 0.325235
0.979065 0.386142 0.325216
0.976755 0.388385 0.325198
0.974445 0.390629 0.32518
0.972135 0.392873 0.325161
0.969825 0.395117 0.325143
0.967514 0.397361 0.325125
0.965204 0.399605 0.325107
0.962893 0.40185 0.325088
0.960582 0.404094 0.32507
0.958272 0.406339 0.325052
0.955961 0.408584 0.325033
0.95365 0.410828 0.325015
0.951338 0.413073 0.324997
0.949027 0.415318 0.324979
0.946715 0.417563 0.32496
0.944404 0.419809 0.324942
0.942092 0.422054 0.324924
0.93978 0.4243 0.324905
0.937469 0.426545 0.324887
0.935156 0.428791 0.324869
0.932844 0.431037 0.32485
0.930532 0.433283 0.324832
0.92822 0.435529 0.324814
0.925907 0.437775 0.324795
0.923595 0.440021 0.324777
0.921282 0.442267 0.324759
0.918969 0.444514 0.32474
0.916656 0.446761 0.324722
0.914343 0.449007 0.324704
0.91203 0.451254 0.324685
0.909717 0.453501 0.324667
0.907403 0.455748 0.324649
0.905089 0.457995 0.324631
0.902776 0.460242 0.324612
0.900462 0.46249 0.324594
0.898148 0.464737 0.324576
0.895834 0.466985 0.324557
0.89352 0.469233 0.324539
0.891206 0.47148 0.324521
0.888892 0.473729 0.324502
0.886577 0.475976 0.324484
0.884262 0.478225 0.324466
0.881948 0.480473 0.324447
0.879633 0.482721 0.324429
0.877318 0.48497 0.324411
0.875003 0.487219 0.324392
0.872688 0.489467 0.324374
0.870373 0.491716 0.324356
0.868057 0.493965 0.324337
0.865742 0.496214 0.324319
0.863426 0.498463 0.324301
0.86111 0.500713 0.324282
0.858795 0.502962 0.324264
0.856478 0.505212 0.324246
0.854162 0.507461 0.324227
0.851846 0.509711 0.324209
0.84953 0.511961 0.32419
0.847214 0.514211 0.324172
0.844897 0.516461 0.324154
0.84258 0.518711 0.324135
0.840263 0.520961 0.324117
0.837947 0.523212 0.324099
0.83563 0.525462 0.32408
0.833312 0.527713 0.324062
0.830995 0.529964 0.324044
0.828678 0.532215 0.324025
0.82636 0.534466 0.324007
0.824043 0.536717 0.323989
0.821725 0.538968 0.32397
0.819407 0.541219 0.323952
0.817089 0.543471 0.323934
0.814771 0.545722 0.323915
0.812453 0.547974 0.323897
0.810135 0.550226 0.323878
0.807816 0.552478 0.32386
0.805498 0.55473 0.323842
0.803179 0.556982 0.323823
0.80086 0.559234 0.323805
0.798542 0.561486 0.323787
0.796223 0.563739 0.323768
0.793904 0.565991 0.32375
0.791584 0.568244 0.323732
0.789265 0.570497 0.323713
0.786945 0.57275 0.323695
0.784626 0.575003 0.323676
0.782306 0.577256 0.323658
0.779986 0.579509 0.32364
0.777666 0.581763 0.323621
0.775346 0.584016 0.323603
0.773026 0.58627 0.323585
0.770706 0.588523 0.323566
0.768386 0.590777 0.323548
0.766065 0.593031 0.323529
0.763745 0.595285 0.323511
0.761424 0.597539 0.323493
0.759103 0.599793 0.323474
0.756782 0.602048 0.323456
0.754461 0.604302 0.323437
0.75214 0.606557 0.323419
0.749818 0.608812 0.323401
0.747497 0.611066 0.323382
0.745175 0.613321 0.323364
0.742854 0.615576 0.323346
0.740532 0.617832 0.323327
0.73821 0.620087 0.323309
0.735888 0.622342 0.32329
0.733566 0.624598 0.323272
0.731244 0.626853 0.323254
0.728921 0.629109 0.323235
0.726599 0.631365 0.323217
0.724276 0.633621 0.323198
0.721954 0.635877 0.32318
0.719631 0.638133 0.323162
0.717308 0.64039 0.323143
0.714985 0.642646 0.323125
0.712662 0.644902 0.323106
0.710338 0.647159 0.323088
0.708015 0.649416 0.32307
0.705691 0.651673 0.323051
0.703368 0.65393 0.323033
0.701044 0.656187 0.323014
0.69872 0.658444 0.322996
0.696396 0.660701 0.322978
0.694072 0.662959 0.322959
0.691748 0.665216 0.322941
0.689423 0.667474 0.322922
0.687099 0.669732 0.322904
0.684774 0.67199 0.322886
0.68245 0.674248 0.322867
0.680125 0.676506 0.322849
0.6778 0.678764 0.32283
0.675475 0.681022 0.322812
0.67315 0.683281 0.322794
0.670824 0.685539 0.322775
0.668499 0.687798 0.322757
0.666174 0.690057 0.322738
0.663848 0.692316 0.32272
0.661522 0.694575 0.322701
0.659196 0.696834 0.322683
0.65687 0.699093 0.322664
0.654544 0.701352 0.322646
0.652218 0.703612 0.322628
0.649892 0.705871 0.322609
0.647565 0.708131 0.322591
0.645239 0.710391 0.322572
0.642912 0.712651 0.322554
0.640585 0.714911 0.322535
0.638258 0.717171 0.322517
0.635931 0.719431 0.322499
0.633604 0.721692 0.32248
0.631277 0.723952 0.322462
0.628949 0.726213 0.322443
0.626622 0.728473 0.322425
0.624294 0.730734 0.322407
0.621967 0.732995 0.322388
0.619639 0.735256 0.32237
0.617311 0.737517 0.322351
0.614983 0.739779 0.322333
0.612655 0.74204 0.322314
0.610326 0.744302 0.322296
0.607998 0.746563 0.322277
0.605669 0.748825 0.322259
0.603341 0.751087 0.322241
0.601012 0.753349 0.322222
0.598683 0.755611 0.322204
0.596354 0.757873 0.322185
0.594025 0.760135 0.322167
0.591696 0.762398 0.322148
0.589366 0.76466 0.32213
0.587037 0.766923 0.322111
0.584707 0.769186 0.322093
0.582377 0.771449 0.322075
0.580047 0.773712 0.322056
0.577718 0.775975 0.322038
0.575388 0.778238 0.322019
0.573057 0.780501 0.322001
0.570727 0.782765 0.321982
0.568397 0.785028 0.321964
0.566066 0.787292 0.321945
0.563735 0.789556 0.321927
0.561405 0.79182 0.321908
0.559074 0.794084 0.32189
0.556743 0.796348 0.321871
0.554412 0.798612 0.321853
0.552081 0.800876 0.321835
0.549749 0.803141 0.321816
0.547418 0.805405 0.321798
0.545086 0.80767 0.321779
0.542754 0.809935 0.321761
0.540423 0.8122 0.321742
0.538091 0.814465 0.321724
0.535759 0.81673 0.321705
0.533426 0.818995 0.321687
0.531094 0.821261 0.321668
0.528762 0.823526 0.32165
0.526429 0.825792 0.321631
0.524097 0.828057 0.321613
0.521764 0.830323 0.321594
0.519431 0.832589 0.321576
0.517098 0.834855 0.321557
0.514765 0.837121 0.321539
0.512431 0.839388 0.32152
0.510098 0.841654 0.321502
0.507765 0.843921 0.321483
0.505431 0.846187 0.321465
0.503098 0.848454 0.321447
0.500764 0.850721 0.321428
0.49843 0.852988 0.32141
0.496096 0.855255 0.321391
0.493761 0.857522 0.321373
0.491427 0.859789 0.321354
0.489093 0.862057 0.321336
0.486758 0.864324 0.321317
0.484424 0.866592 0.321299
0.482089 0.86886 0.32128
0.479754 0.871128 0.321262
0.477419 0.873396 0.321243
0.475084 0.875664 0.321225
0.472749 0.877932 0.321206
0.470413 0.8802 0.321188
0.468078 0.882469 0.321169
0.465742 0.884737 0.321151
0.463407 0.887006 0.321132
0.461071 0.889275 0.321114
0.458735 0.891544 0.321095
0.456399 0.893813 0.321077
0.454063 0.896082 0.321058
0.451726 0.898351 0.32104
0.44939 0.900621 0.321021
0.447054 0.90289 0.321003
0.444717 0.90516 0.320984
0.44238 0.907429 0.320966
0.440043 0.909699 0.320947
0.437706 0.911969 0.320929
0.435369 0.914239 0.32091
0.433032 0.916509 0.320892
0.430544 0.91868 0.3208
0.42742 0.920431 0.320403
0.424292 0.922185 0.320005
0.421161 0.92394 0.319607
0.418027 0.925697 0.319209
0.414889 0.927456 0.31881
0.411748 0.929217 0.31841
0.408604 0.93098 0.31801
0.405456 0.932745 0.31761
0.402304 0.934512 0.317209
0.399284 0.936366 0.316872
0.396369 0.938291 0.316586
0.393451 0.940217 0.316299
0.390532 0.942144 0.316012
-0.332224 0.491869 -0.0243001
-0.335601 0.495241 -0.0243001
-0.338978 0.498614 -0.0243001
-0.342355 0.501986 -0.0243001
-0.345732 0.505358 -0.0243001
-0.349109 0.50873 -0.0243001
-0.352486 0.512102 -0.0243001
-0.355863 0.515474 -0.0243001
-0.35924 0.518847 -0.0243001
-0.362617 0.522219 -0.0243001
-0.365994 0.525591 -0.0243
-0.369371 0.528963 -0.0243
-0.372747 0.532335 -0.0243
-0.376124 0.535707 -0.0243
-0.379501 0.53908 -0.0243
-0.382878 0.542452 -0.0243
-0.386255 0.545824 -0.0243
-0.389632 0.549196 -0.0243
-0.393009 0.552568 -0.0243
-0.396386 0.55594 -0.0243
-0.399763 0.559312 -0.0243
-0.40314 0.562685 -0.0243
-0.406517 0.566057 -0.0243
-0.409894 0.569429 -0.0243
-0.413271 0.572801 -0.0243
-0.416647 0.576173 -0.0243
-0.420024 0.579545 -0.0243
-0.423401 0.582918 -0.0243
-0.426778 0.58629 -0.0243
-0.430155 0.589662 -0.0243
-0.433532 0.593034 -0.0243
-0.436909 0.596406 -0.0243
-0.440286 0.599778 -0.0243
-0.443663 0.603151 -0.0243
-0.44704 0.606523 -0.0243
-0.450417 0.609895 -0.0243
-0.453794 0.613267 -0.0242999
-0.45717 0.616639 -0.0242999
-0.460547 0.620011 -0.0242999
-0.463924 0.623384 -0.0242999
-0.467301 0.626756 -0.0242999
-0.470678 0.630128 -0.0242999
-0.474055 0.6335 -0.0242999
-0.477432 0.636872 -0.0242999
-0.480809 0.640244 -0.0242999
-0.484186 0.643617 -0.0242999
-0.487563 0.646989 -0.0242999
-0.49094 0.650361 -0.0242999
-0.494317 0.653733 -0.0242999
-0.497693 0.657105 -0.0242999
-0.50107 0.660477 -0.0242999
-0.504448 0.663849 -0.0243
-0.507824 0.667222 -0.0243
-0.511201 0.670594 -0.0243
-0.514578 0.673966 -0.0243
-0.517955 0.677338 -0.0243
-0.521332 0.68071 -0.0243
-0.524709 0.684082 -0.0243
-0.528086 0.687455 -0.0243
-0.531463 0.690827 -0.0243
-0.53484 0.694199 -0.0243
-0.538217 0.697571 -0.0243
-0.541594 0.700943 -0.0243
-0.544971 0.704315 -0.0243
-0.548348 0.707688 -0.0243
-0.551724 0.71106 -0.0243
-0.555101 0.714432 -0.0243
-0.558479 0.717804 -0.0243
-0.561855 0.721176 -0.0243
-0.565232 0.724548 -0.0242999
-0.568609 0.72792 -0.0242999
-0.571986 0.731293 -0.0242999
-0.575363 0.734665 -0.0242999
-0.57874 0.738037 -0.0242999
-0.582117 0.741409 -0.0242999
-0.585494 0.744781 -0.0242999
-0.588871 0.748153 -0.0242999
-0.592248 0.751526 -0.0242999
-0.595625 0.754898 -0.0242999
-0.599002 0.75827 -0.0242999
-0.602378 0.761642 -0.0242999
-0.605755 0.765014 -0.0242999
-0.609132 0.768386 -0.0242999
-0.612509 0.771759 -0.0242999
-0.615886 0.775131 -0.0242999
-0.619263 0.778503 -0.0242999
-0.62264 0.781875 -0.0242999
-0.626017 0.785247 -0.0242999
-0.629394 0.788619 -0.0242999
-0.632771 0.791991 -0.0242999
-0.636148 0.795364 -0.0242999
-0.639525 0.798736 -0.0242999
-0.642902 0.802108 -0.0242999
-0.646278 0.80548 -0.0242999
-0.649655 0.808852 -0.0242999
-0.653032 0.812224 -0.0242998
-0.656409 0.815597 -0.0242998
-0.659786 0.818969 -0.0242998
-0.663163 0.822341 -0.0242998
-0.66654 0.825713 -0.0242998
-0.669917 0.829085 -0.0242998
-0.673294 0.832457 -0.0242998
-0.676671 0.83583 -0.0242998
-0.680048 0.839202 -0.0242998
-0.683425 0.842574 -0.0242998
-0.686802 0.845946 -0.0242998
-0.690178 0.849318 -0.0242998
-0.693555 0.85269 -0.0242998
-0.696932 0.856063 -0.0242998
-0.700309 0.859435 -0.0242998
-0.703686 0.862807 -0.0242998
-0.707063 0.866179 -0.0242998
-0.71044 0.869551 -0.0242998
-0.713817 0.872923 -0.0242998
-0.717194 0.876296 -0.0242998
-0.720571 0.879668 -0.0242998
-0.723948 0.88304 -0.0242998
-0.727325 0.886412 -0.0242998
-0.730701 0.889784 -0.0242998
-0.734078 0.893156 -0.0242998
-0.737455 0.896529 -0.0242998
-0.740832 0.899901 -0.0242997
-0.744209 0.903273 -0.0242997
-0.747586 0.906645 -0.0242997
-0.750963 0.910017 -0.0242997
-0.75434 0.913389 -0.0242997
-0.757717 0.916762 -0.0242997
-0.761094 0.920134 -0.0242997
-0.764471 0.923506 -0.0242997
-0.767848 0.926878 -0.0242997
-0.771225 0.93025 -0.0242997
-0.774601 0.933622 -0.0242997
-0.777978 0.936995 -0.0242997
-0.781355 0.940367 -0.0242997
-0.784732 0.943739 -0.0242997
-0.788109 0.947111 -0.0242997
-0.791486 0.950483 -0.0242997
-0.794863 0.953855 -0.0242997
-0.79824 0.957228 -0.0242997
-0.801617 0.9606 -0.0242997
-0.804994 0.963972 -0.0242997
-0.808371 0.967344 -0.0242997
-0.811748 0.970716 -0.0242997
-0.815124 0.974088 -0.0242997
-0.818501 0.977461 -0.0242997
-0.821878 0.980833 -0.0242997
-0.825255 0.984205 -0.0242997
-0.828632 0.987577 -0.0242996
-0.832009 0.990949 -0.0242996
-0.835386 0.994321 -0.0242996
-0.838763 0.997693 -0.0242996
-0.84214 1.00107 -0.0242996
-0.845517 1.00444 -0.0242996
-0.848894 1.00781 -0.0242996
-0.852271 1.01118 -0.0242996
-0.855648 1.01455 -0.0242996
-0.859024 1.01793 -0.0242996
-0.862401 1.0213 -0.0242996
-0.865778 1.02467 -0.0242996
-0.869155 1.02804 -0.0242996
-0.872532 1.03142 -0.0242996
-0.875909 1.03479 -0.0242996
-0.879286 1.03816 -0.0242996
-0.882663 1.04153 -0.0242996
-0.88604 1.0449 -0.0242996
-0.889417 1.04828 -0.0242996
-0.892794 1.05165 -0.0242996
-0.896171 1.05502 -0.0242996
-0.899548 1.05839 -0.0242996
-0.902924 1.06176 -0.0242996
-0.906301 1.06514 -0.0242996
-0.909678 1.06851 -0.0242996
-0.913055 1.07188 -0.0242996
-0.916432 1.07525 -0.0242995
-0.919809 1.07863 -0.0242995
-0.923186 1.082 -0.0242995
-0.926563 1.08537 -0.0242995
-0.92994 1.08874 -0.0242995
-0.933317 1.09211 -0.0242995
-0.936694 1.09549 -0.0242995
-0.940071 1.09886 -0.0242995
-0.943447 1.10223 -0.0242995
-0.946824 1.1056 -0.0242995
-0.950201 1.10897 -0.0242995
-0.953578 1.11235 -0.0242995
-0.956955 1.11572 -0.0242995
-0.960332 1.11909 -0.0242995
-0.963709 1.12246 -0.0242995
-0.967086 1.12584 -0.0242995
-0.970463 1.12921 -0.0242995
-0.97384 1.13258 -0.0242995
-0.977217 1.13595 -0.0242995
-0.980594 1.13932 -0.0242995
-0.983971 1.1427 -0.0242995
1.17743 -0.998861 -0.024192
1.17407 -0.995504 -0.024192
1.17071 -0.992147 -0.024192
1.16735 -0.98879 -0.024192
1.16399 -0.985433 -0.024192
1.16062 -0.982076 -0.024192
1.15726 -0.978719 -0.024192
1.1539 -0.975362 -0.024192
1.15054 -0.972005 -0.024192
1.14718 -0.968648 -0.024192
1.14382 -0.965291 -0.024192
1.14045 -0.961934 -0.024192
1.13709 -0.958577 -0.024192
1.13373 -0.95522 -0.0241919
1.13037 -0.951863 -0.0241919
1.12701 -0.948506 -0.0241919
1.12365 -0.945149 -0.0241919
1.12028 -0.941792 -0.0241919
1.11692 -0.938435 -0.0241919
1.11356 -0.935078 -0.0241919
1.1102 -0.931721 -0.0241919
1.10684 -0.928364 -0.0241919
1.10347 -0.925007 -0.0241919
1.10011 -0.92165 -0.0241919
1.09675 -0.918293 -0.0241919
1.09339 -0.914936 -0.0241919
1.09003 -0.911579 -0.0241919
1.08667 -0.908222 -0.0241919
1.0833 -0.904865 -0.0241919
1.07994 -0.901508 -0.0241919
1.07658 -0.898151 -0.0241919
1.07322 -0.894794 -0.0241919
1.06986 -0.891437 -0.0241919
1.0665 -0.88808 -0.0241919
1.06313 -0.884723 -0.0241919
1.05977 -0.881366 -0.0241919
1.05641 -0.878009 -0.0241919
1.05305 -0.874652 -0.0241919
1.04969 -0.871295 -0.0241919
1.04633 -0.867938 -0.0241918
1.04296 -0.864581 -0.0241918
1.0396 -0.861224 -0.0241918
1.03624 -0.857867 -0.0241918
1.03288 -0.85451 -0.0241918
1.02952 -0.851153 -0.0241918
1.02615 -0.847796 -0.0241918
1.02279 -0.844439 -0.0241918
1.01943 -0.841082 -0.0241918
1.01607 -0.837725 -0.0241918
1.01271 -0.834368 -0.0241918
1.00935 -0.831011 -0.0241918
1.00598 -0.827654 -0.0241918
1.00262 -0.824296 -0.0241918
0.999261 -0.82094 -0.0241918
0.995899 -0.817583 -0.0241918
0.992537 -0.814226 -0.0241918
0.989175 -0.810868 -0.0241918
0.985814 -0.807511 -0.0241918
0.982452 -0.804154 -0.0241918
0.97909 -0.800798 -0.0241918
0.975728 -0.797441 -0.0241918
0.972367 -0.794083 -0.0241918
0.969005 -0.790726 -0.0241918
0.965643 -0.787369 -0.0241918
0.962282 -0.784012 -0.0241918
0.95892 -0.780655 -0.0241918
0.955558 -0.777298 -0.0241917
0.952196 -0.773941 -0.0241917
0.948835 -0.770584 -0.0241917
0.945473 -0.767227 -0.0241917
0.942111 -0.76387 -0.0241917
0.938749 -0.760513 -0.0241917
0.935388 -0.757156 -0.0241917
0.932026 -0.753799 -0.0241917
0.928664 -0.750443 -0.0241918
0.925302 -0.747086 -0.0241918
0.92194 -0.743729 -0.0241918
0.918579 -0.740372 -0.0241918
0.915217 -0.737015 -0.0241918
0.911855 -0.733658 -0.0241918
0.908494 -0.730301 -0.0241918
0.905132 -0.726944 -0.0241918
0.90177 -0.723587 -0.0241918
0.898408 -0.72023 -0.0241918
0.895047 -0.716873 -0.0241918
0.891685 -0.713516 -0.0241918
0.888323 -0.710159 -0.0241918
0.884961 -0.706802 -0.0241918
0.8816 -0.703445 -0.0241918
0.878238 -0.700088 -0.0241918
0.874876 -0.696731 -0.0241918
0.871514 -0.693374 -0.0241918
0.868153 -0.690016 -0.0241918
0.864791 -0.686659 -0.0241918
0.861429 -0.683302 -0.0241918
0.858067 -0.679946 -0.0241918
0.854706 -0.676588 -0.0241918
0.851344 -0.673231 -0.0241918
0.847982 -0.669874 -0.0241917
0.84462 -0.666517 -0.0241917
0.841259 -0.66316 -0.0241917
0.837897 -0.659803 -0.0241917
0.834535 -0.656446 -0.0241917
0.831173 -0.653089 -0.0241917
0.827812 -0.649732 -0.0241917
0.82445 -0.646375 -0.0241917
0.821088 -0.643018 -0.0241917
0.817726 -0.639661 -0.0241917
0.814365 -0.636304 -0.0241917
0.811003 -0.632947 -0.0241917
0.807641 -0.62959 -0.0241917
0.804279 -0.626233 -0.0241917
0.800918 -0.622876 -0.0241917
0.797556 -0.619519 -0.0241917
0.794194 -0.616162 -0.0241917
0.790832 -0.612805 -0.0241917
0.787471 -0.609448 -0.0241917
0.784109 -0.606091 -0.0241917
0.780747 -0.602734 -0.0241917
0.777386 -0.599377 -0.0241917
0.774024 -0.59602 -0.0241917
0.770662 -0.592663 -0.0241917
0.7673 -0.589306 -0.0241917
0.763939 -0.585949 -0.0241917
0.760577 -0.582592 -0.0241916
0.757215 -0.579235 -0.0241916
0.753853 -0.575878 -0.0241916
0.750492 -0.572521 -0.0241916
0.74713 -0.569164 -0.0241916
0.743768 -0.565807 -0.0241916
0.740406 -0.56245 -0.0241916
0.737045 -0.559093 -0.0241916
0.733683 -0.555736 -0.0241916
0.730321 -0.552379 -0.0241916
0.726959 -0.549022 -0.0241916
0.723598 -0.545665 -0.0241916
0.720236 -0.542308 -0.0241916
0.716874 -0.538951 -0.0241916
0.713512 -0.535594 -0.0241916
0.710151 -0.532237 -0.0241916
0.706789 -0.52888 -0.0241916
1.10051 0.252257 0.318295
1.0985 0.255114 0.318543
1.09649 0.257969 0.318791
1.09448 0.260822 0.319039
1.09248 0.263673 0.319287
1.09061 0.266776 0.319648
1.08875 0.269885 0.320012
1.08688 0.272991 0.320375
1.08502 0.276094 0.320738
1.08317 0.279194 0.321101
1.08131 0.282291 0.321463
1.07945 0.285385 0.321826
1.0776 0.288475 0.322187
1.07575 0.291563 0.322549
1.07369 0.294268 0.322739
1.07139 0.296507 0.322721
1.06908 0.298747 0.322703
1.06678 0.300986 0.322684
1.06447 0.303225 0.322666
1.06217 0.305465 0.322648
1.05986 0.307705 0.322629
1.05756 0.309944 0.322611
1.05525 0.312184 0.322593
1.05294 0.314424 0.322574
1.05064 0.316664 0.322556
1.04833 0.318904 0.322538
1.04602 0.321145 0.322519
1.04372 0.323385 0.322501
1.04141 0.325626 0.322482
1.0391 0.327866 0.322464
1.0368 0.330107 0.322446
1.03449 0.332348 0.322427
1.03218 0.334589 0.322409
1.02988 0.33683 0.322391
1.02757 0.339071 0.322372
1.02526 0.341313 0.322354
1.02295 0.343554 0.322336
1.02065 0.345796 0.322317
1.01834 0.348037 0.322299
1.01603 0.350279 0.322281
1.01372 0.352521 0.322262
1.01141 0.354763 0.322244
1.00911 0.357005 0.322226
1.0068 0.359247 0.322207
1.00449 0.36149 0.322189
1.00218 0.363732 0.32217
0.999871 0.365975 0.322152
0.997562 0.368217 0.322134
0.995253 0.37046 0.322115
0.992943 0.372703 0.322097
0.990634 0.374946 0.322079
0.988325 0.377189 0.32206
0.986015 0.379432 0.322042
0.983706 0.381676 0.322023
0.981396 0.383919 0.322005
0.979086 0.386163 0.321987
0.976776 0.388406 0.321968
0.974466 0.39065 0.32195
0.972156 0.392894 0.321932
0.969846 0.395138 0.321913
0.967535 0.397382 0.321895
0.965225 0.399627 0.321876
0.962914 0.401871 0.321858
0.960603 0.404115 0.32184
0.958293 0.40636 0.321821
0.955982 0.408605 0.321803
0.953671 0.41085 0.321785
0.951359 0.413094 0.321766
0.949048 0.415339 0.321748
0.946736 0.417585 0.321729
0.944425 0.41983 0.321711
0.942113 0.422075 0.321693
0.939801 0.424321 0.321674
0.93749 0.426566 0.321656
0.935177 0.428812 0.321637
0.932865 0.431058 0.321619
0.930553 0.433304 0.321601
0.928241 0.43555 0.321582
0.925928 0.437796 0.321564
0.923616 0.440042 0.321546
0.921303 0.442288 0.321527
0.91899 0.444535 0.321509
0.916677 0.446782 0.32149
0.914364 0.449028 0.321472
0.912051 0.451275 0.321453
0.909738 0.453522 0.321435
0.907424 0.455769 0.321417
0.90511 0.458016 0.321398
0.902797 0.460263 0.32138
0.900483 0.462511 0.321361
0.898169 0.464758 0.321343
0.895855 0.467006 0.321325
0.893541 0.469254 0.321306
0.891227 0.471502 0.321288
0.888913 0.47375 0.321269
0.886598 0.475997 0.321251
0.884283 0.478246 0.321233
0.881969 0.480494 0.321214
0.879654 0.482742 0.321196
0.877339 0.484991 0.321177
0.875024 0.48724 0.321159
0.872709 0.489488 0.32114
0.870394 0.491737 0.321122
0.868078 0.493986 0.321104
0.865763 0.496235 0.321085
0.863447 0.498484 0.321067
0.861131 0.500734 0.321048
0.858816 0.502983 0.32103
0.8565 0.505233 0.321012
0.854183 0.507482 0.320993
0.851867 0.509732 0.320975
0.849551 0.511982 0.320956
0.847235 0.514232 0.320938
0.844918 0.516482 0.320919
0.842601 0.518732 0.320901
0.840285 0.520983 0.320883
0.837968 0.523233 0.320864
0.835651 0.525483 0.320846
0.833333 0.527734 0.320827
0.831016 0.529985 0.320809
0.828699 0.532236 0.32079
0.826381 0.534487 0.320772
0.824064 0.536738 0.320754
0.821746 0.538989 0.320735
0.819428 0.54124 0.320717
0.81711 0.543492 0.320698
0.814792 0.545743 0.32068
0.812474 0.547995 0.320661
0.810156 0.550247 0.320643
0.807837 0.552499 0.320624
0.805519 0.554751 0.320606
0.8032 0.557003 0.320588
0.800882 0.559255 0.320569
0.798563 0.561507 0.320551
0.796244 0.56376 0.320532
0.793925 0.566013 0.320514
0.791605 0.568265 0.320495
0.789286 0.570518 0.320477
0.786967 0.572771 0.320458
0.784647 0.575024 0.32044
0.782327 0.577277 0.320421
0.780007 0.57953 0.320403
0.777688 0.581784 0.320385
0.775367 0.584037 0.320366
0.773047 0.586291 0.320348
0.770727 0.588544 0.320329
0.768407 0.590798 0.320311
0.766086 0.593052 0.320292
0.763766 0.595306 0.320274
0.761445 0.59756 0.320255
0.759124 0.599815 0.320237
0.756803 0.602069 0.320218
0.754482 0.604323 0.3202
0.752161 0.606578 0.320182
0.749839 0.608833 0.320163
0.747518 0.611088 0.320145
0.745196 0.613343 0.320126
0.742875 0.615597 0.320108
0.740553 0.617853 0.320089
0.738231 0.620108 0.320071
0.735909 0.622363 0.320052
0.733587 0.624619 0.320034
0.731265 0.626875 0.320015
0.728942 0.62913 0.319997
0.72662 0.631386 0.319978
0.724297 0.633642 0.31996
0.721975 0.635898 0.319941
0.719652 0.638154 0.319923
0.717329 0.640411 0.319904
0.715006 0.642667 0.319886
0.712683 0.644924 0.319867
0.710359 0.64718 0.319849
0.708036 0.649437 0.31983
0.705712 0.651694 0.319812
0.703389 0.653951 0.319794
0.701065 0.656208 0.319775
0.698741 0.658465 0.319757
0.696417 0.660722 0.319738
0.694093 0.66298 0.31972
0.691769 0.665237 0.319701
0.689444 0.667495 0.319683
0.68712 0.669753 0.319664
0.684795 0.672011 0.319646
0.682471 0.674269 0.319627
0.680146 0.676527 0.319609
0.677821 0.678785 0.31959
0.675496 0.681043 0.319572
0.673171 0.683302 0.319553
0.670845 0.68556 0.319535
0.66852 0.687819 0.319516
0.666195 0.690078 0.319498
0.663869 0.692337 0.319479
0.661543 0.694596 0.319461
0.659217 0.696855 0.319442
0.656891 0.699114 0.319424
0.654565 0.701373 0.319405
0.652239 0.703633 0.319387
0.649913 0.705892 0.319368
0.647586 0.708152 0.31935
0.64526 0.710412 0.319331
0.642933 0.712672 0.319313
0.640606 0.714932 0.319294
0.638279 0.717192 0.319276
0.635952 0.719452 0.319257
0.633625 0.721713 0.319238
0.631298 0.723973 0.31922
0.628971 0.726234 0.319201
0.626643 0.728494 0.319183
0.624316 0.730755 0.319164
0.621988 0.733016 0.319146
0.61966 0.735277 0.319127
0.617332 0.737539 0.319109
0.615004 0.7398 0.31909
0.612676 0.742061 0.319072
0.610347 0.744323 0.319053
0.608019 0.746584 0.319035
0.60569 0.748846 0.319016
0.603362 0.751108 0.318998
0.601033 0.75337 0.318979
0.598704 0.755632 0.318961
0.596375 0.757894 0.318942
0.594046 0.760156 0.318924
0.591717 0.762419 0.318905
0.589387 0.764681 0.318887
0.587058 0.766944 0.318868
0.584728 0.769207 0.318849
0.582399 0.77147 0.318831
0.580069 0.773733 0.318812
0.577739 0.775996 0.318794
0.575409 0.778259 0.318775
0.573078 0.780522 0.318757
0.570748 0.782786 0.318738
0.568418 0.785049 0.31872
0.566087 0.787313 0.318701
0.563757 0.789577 0.318683
0.561426 0.791841 0.318664
0.559095 0.794105 0.318646
0.556764 0.796369 0.318627
0.554433 0.798633 0.318608
0.552102 0.800898 0.31859
0.54977 0.803162 0.318571
0.547439 0.805426 0.318553
0.545107 0.807691 0.318534
0.542775 0.809956 0.318516
0.540444 0.812221 0.318497
0.538112 0.814486 0.318479
0.53578 0.816751 0.31846
0.533447 0.819016 0.318442
0.531115 0.821282 0.318423
0.528783 0.823547 0.318404
0.52645 0.825813 0.318386
0.524118 0.828079 0.318367
0.521785 0.830344 0.318349
0.519452 0.83261 0.31833
0.517119 0.834876 0.318312
0.514786 0.837143 0.318293
0.512453 0.839409 0.318274
0.510119 0.841675 0.318256
0.507786 0.843942 0.318237
0.505452 0.846208 0.318219
0.503119 0.848475 0.3182
0.500785 0.850742 0.318182
0.498451 0.853009 0.318163
0.496117 0.855276 0.318145
0.493783 0.857543 0.318126
0.491448 0.859811 0.318107
0.489114 0.862078 0.318089
0.486779 0.864346 0.31807
0.484445 0.866613 0.318052
0.48211 0.868881 0.318033
0.479775 0.871149 0.318014
0.47744 0.873417 0.317996
0.475105 0.875685 0.317977
0.47277 0.877953 0.317959
0.470434 0.880221 0.31794
0.468099 0.88249 0.317922
0.465763 0.884758 0.317903
0.463428 0.887027 0.317884
0.461092 0.889296 0.317866
0.458756 0.891565 0.317847
0.45642 0.893834 0.317829
0.454084 0.896103 0.31781
0.451747 0.898372 0.317791
0.449411 0.900642 0.317773
0.447075 0.902911 0.317754
0.444738 0.905181 0.317736
0.442401 0.90745 0.317717
0.440064 0.90972 0.317699
0.437727 0.91199 0.31768
0.43539 0.91426 0.317661
0.433053 0.91653 0.317643
0.430565 0.918701 0.317551
0.427441 0.920452 0.317152
0.424313 0.922206 0.316753
0.421182 0.923961 0.316353
0.418048 0.925718 0.315952
0.414911 0.927478 0.315552
0.411769 0.929239 0.315151
0.408625 0.931002 0.314749
0.405477 0.932766 0.314347
0.402326 0.934533 0.313944
0.399277 0.936369 0.313592
0.396361 0.938294 0.313304
0.393444 0.94022 0.313016
0.390524 0.942147 0.312728
-0.321905 0.498364 -0.0241907
-0.325266 0.501721 -0.0241907
-0.328628 0.505078 -0.0241907
-0.33199 0.508435 -0.0241907
-0.335352 0.511792 -0.0241907
-0.338713 0.515149 -0.0241906
-0.342075 0.518506 -0.0241906
-0.345437 0.521863 -0.0241906
-0.348799 0.52522 -0.0241906
-0.35216 0.528577 -0.0241906
-0.355522 0.531934 -0.0241906
-0.358884 0.535291 -0.0241906
-0.362246 0.538648 -0.0241906
-0.365607 0.542005 -0.0241906
-0.368969 0.545362 -0.0241906
-0.372331 0.548719 -0.0241906
-0.375693 0.552076 -0.0241906
-0.379054 0.555433 -0.0241906
-0.382416 0.55879 -0.0241906
-0.385778 0.562147 -0.0241906
-0.38914 0.565504 -0.0241906
-0.392501 0.568861 -0.0241906
-0.395863 0.572218 -0.0241906
-0.399225 0.575575 -0.0241906
-0.402586 0.578932 -0.0241906
-0.405948 0.582289 -0.0241906
-0.40931 0.585646 -0.0241906
-0.412672 0.589003 -0.0241906
-0.416033 0.59236 -0.0241906
-0.419395 0.595717 -0.0241906
-0.422757 0.599074 -0.0241906
-0.426119 0.602431 -0.0241906
-0.42948 0.605788 -0.0241905
-0.432842 0.609145 -0.0241905
-0.436204 0.612502 -0.0241905
-0.439566 0.615859 -0.0241905
-0.442927 0.619216 -0.0241905
-0.446289 0.622573 -0.0241905
-0.449651 0.62593 -0.0241905
-0.453013 0.629287 -0.0241905
-0.456374 0.632644 -0.0241905
-0.459736 0.636001 -0.0241905
-0.463098 0.639358 -0.0241905
-0.46646 0.642715 -0.0241905
-0.469821 0.646072 -0.0241905
-0.473183 0.649429 -0.0241905
-0.476545 0.652786 -0.0241905
-0.479907 0.656143 -0.0241905
-0.483268 0.6595 -0.0241905
-0.48663 0.662857 -0.0241905
-0.489992 0.666214 -0.0241905
-0.493354 0.669571 -0.0241906
-0.496716 0.672928 -0.0241906
-0.500077 0.676285 -0.0241906
-0.503439 0.679642 -0.0241906
-0.506801 0.682999 -0.0241906
-0.510162 0.686356 -0.0241906
-0.513524 0.689713 -0.0241906
-0.516886 0.69307 -0.0241906
-0.520248 0.696427 -0.0241906
-0.523609 0.699784 -0.0241906
-0.526971 0.703141 -0.0241906
-0.530333 0.706498 -0.0241906
-0.533695 0.709855 -0.0241906
-0.537056 0.713212 -0.0241905
-0.540418 0.716569 -0.0241905
-0.54378 0.719926 -0.0241905
-0.547142 0.723283 -0.0241905
-0.550503 0.72664 -0.0241905
-0.553865 0.729997 -0.0241905
-0.557227 0.733354 -0.0241905
-0.560589 0.736711 -0.0241905
-0.56395 0.740068 -0.0241905
-0.567312 0.743425 -0.0241905
-0.570674 0.746782 -0.0241905
-0.574036 0.750139 -0.0241905
-0.577397 0.753496 -0.0241905
-0.580759 0.756853 -0.0241905
-0.584121 0.76021 -0.0241905
-0.587483 0.763567 -0.0241905
-0.590844 0.766924 -0.0241905
-0.594206 0.770281 -0.0241905
-0.597568 0.773638 -0.0241905
-0.60093 0.776995 -0.0241905
-0.604291 0.780352 -0.0241905
-0.607653 0.783709 -0.0241905
-0.611015 0.787066 -0.0241905
-0.614377 0.790423 -0.0241905
-0.617738 0.79378 -0.0241905
-0.6211 0.797137 -0.0241905
-0.624462 0.800494 -0.0241904
-0.627823 0.803851 -0.0241904
-0.631185 0.807208 -0.0241904
-0.634547 0.810565 -0.0241904
-0.637909 0.813922 -0.0241904
-0.64127 0.817279 -0.0241904
-0.644632 0.820636 -0.0241904
-0.647994 0.823993 -0.0241904
-0.651356 0.82735 -0.0241904
-0.654717 0.830707 -0.0241904
-0.658079 0.834064 -0.0241904
-0.661441 0.837421 -0.0241904
-0.664803 0.840778 -0.0241904
-0.668164 0.844135 -0.0241904
-0.671526 0.847492 -0.0241904
-0.674888 0.850849 -0.0241904
-0.67825 0.854206 -0.0241904
-0.681611 0.857563 -0.0241904
-0.684973 0.86092 -0.0241904
-0.688335 0.864277 -0.0241904
-0.691697 0.867634 -0.0241904
-0.695058 0.870991 -0.0241904
-0.69842 0.874348 -0.0241904
-0.701782 0.877705 -0.0241904
-0.705144 0.881062 -0.0241904
-0.708505 0.884419 -0.0241904
-0.711867 0.887776 -0.0241904
-0.715229 0.891133 -0.0241903
-0.718591 0.89449 -0.0241903
-0.721952 0.897847 -0.0241903
-0.725314 0.901204 -0.0241903
-0.728676 0.904561 -0.0241903
-0.732038 0.907919 -0.0241903
-0.735399 0.911275 -0.0241903
-0.738761 0.914632 -0.0241903
-0.742123 0.917989 -0.0241903
-0.745485 0.921347 -0.0241903
-0.748846 0.924704 -0.0241903
-0.752208 0.928061 -0.0241903
-0.75557 0.931418 -0.0241903
-0.758932 0.934775 -0.0241903
-0.762293 0.938132 -0.0241903
-0.765655 0.941489 -0.0241903
-0.769017 0.944846 -0.0241903
-0.772379 0.948203 -0.0241903
-0.77574 0.95156 -0.0241903
-0.779102 0.954917 -0.0241903
-0.782464 0.958274 -0.0241903
-0.785825 0.961631 -0.0241903
-0.789187 0.964988 -0.0241903
-0.792549 0.968345 -0.0241903
-0.795911 0.971702 -0.0241903
-0.799272 0.975059 -0.0241903
-0.802634 0.978416 -0.0241902
-0.805996 0.981773 -0.0241902
-0.809358 0.98513 -0.0241902
-0.81272 0.988487 -0.0241902
-0.816081 0.991844 -0.0241902
