-0.712372 -0.147163 0.407096
-0.715212 -0.150089 0.407147
-0.718053 -0.153014 0.407199
-0.720892 -0.155939 0.407251
-0.719836 -0.165753 0.405182
-0.722173 -0.169592 0.404955
-0.724512 -0.173435 0.404728
-0.727198 -0.176663 0.40469
-0.732715 -0.174808 0.406207
-0.736002 -0.176936 0.406503
-0.739286 -0.179061 0.406799
-0.742567 -0.181185 0.407095
-0.745844 -0.183307 0.40739
-0.749119 -0.185426 0.407686
-0.752057 -0.188158 0.407794
-0.754891 -0.191077 0.407846
-0.757725 -0.193996 0.407897
-0.760559 -0.196914 0.407949
-0.763392 -0.199832 0.408
-0.766224 -0.202749 0.408052
-0.769057 -0.205666 0.408103
-0.771888 -0.208582 0.408155
-0.77472 -0.211498 0.408206
-0.77755 -0.214414 0.408258
-0.780381 -0.217329 0.408309
-0.783211 -0.220243 0.408361
-0.78604 -0.223157 0.408412
-0.788869 -0.226071 0.408464
-0.791698 -0.228984 0.408515
-0.794526 -0.231896 0.408567
-0.797354 -0.234808 0.408618
-0.800181 -0.23772 0.408669
-0.803008 -0.240631 0.408721
-0.805834 -0.243542 0.408772
-0.80866 -0.246452 0.408824
-0.811485 -0.249362 0.408875
-0.81431 -0.252272 0.408926
-0.817135 -0.25518 0.408978
-0.819959 -0.258089 0.409029
-0.822782 -0.260997 0.40908
-0.825606 -0.263905 0.409132
-0.828428 -0.266812 0.409183
-0.831251 -0.269718 0.409235
-0.834073 -0.272624 0.409286
-0.836894 -0.27553 0.409337
-0.839715 -0.278435 0.409388
-0.842535 -0.28134 0.40944
-0.845355 -0.284244 0.409491
-0.848148 -0.287205 0.409526
-0.850623 -0.290832 0.409368
-0.853061 -0.294542 0.409187
-0.855418 -0.298429 0.408956
-0.857777 -0.302319 0.408724
0.376758 0.970148 0.38219
0.372662 0.967496 0.382562
0.368752 0.96477 0.382879
0.364945 0.962004 0.383168
0.361739 0.95898 0.383279
0.358725 0.955876 0.383334
0.35571 0.952771 0.383389
0.352697 0.949667 0.383444
0.349683 0.946564 0.3835
0.346671 0.943461 0.383555
0.343659 0.940359 0.38361
0.340647 0.937257 0.383665
0.337636 0.934156 0.38372
0.334625 0.931055 0.383775
0.331615 0.927955 0.38383
0.328605 0.924855 0.383885
0.325596 0.921756 0.38394
0.322587 0.918657 0.383995
0.319578 0.915559 0.38405
0.316571 0.912462 0.384105
0.313563 0.909365 0.384161
0.310556 0.906268 0.384216
0.30755 0.903172 0.384271
0.304544 0.900076 0.384326
0.301539 0.896981 0.384381
0.298534 0.893886 0.384436
0.29553 0.890792 0.384491
0.292526 0.887698 0.384546
0.289523 0.884605 0.384601
0.28652 0.881513 0.384656
0.283517 0.878421 0.38471
0.280515 0.875329 0.384765
0.277514 0.872238 0.38482
0.274513 0.869147 0.384875
0.271513 0.866057 0.38493
0.268513 0.862968 0.384985
0.265643 0.859814 0.385
0.263509 0.856293 0.384789
0.261373 0.85277 0.384578
0.259235 0.849245 0.384366
0.257096 0.845718 0.384155
0.254956 0.842188 0.383943
0.258359 0.835826 0.382014
0.25261 0.834128 0.382918
0.248628 0.831534 0.383276
0.24465 0.828942 0.383634
0.235546 0.829016 0.385588
0.232552 0.825932 0.385643
0.229559 0.822849 0.385698
0.226566 0.819767 0.385753
0.223573 0.816685 0.385808
0.220581 0.813603 0.385862
0.21759 0.810522 0.385917
0.214599 0.807442 0.385972
0.211608 0.804362 0.386026
0.208618 0.801282 0.386081
0.205628 0.798203 0.386136
0.202639 0.795125 0.386191
0.199651 0.792047 0.386245
0.196662 0.78897 0.3863
0.193675 0.785893 0.386355
0.190688 0.782816 0.386409
0.187701 0.77974 0.386464
0.184715 0.776665 0.386519
0.181729 0.77359 0.386573
0.178744 0.770516 0.386628
0.175759 0.767442 0.386683
0.172775 0.764368 0.386737
0.169791 0.761295 0.386792
0.166808 0.758223 0.386846
0.163825 0.755151 0.386901
0.160843 0.75208 0.386956
0.157861 0.749009 0.38701
0.15488 0.745938 0.387065
0.151899 0.742868 0.387119
0.148919 0.739799 0.387174
0.145939 0.73673 0.387228
0.142959 0.733662 0.387283
0.139981 0.730594 0.387337
0.137002 0.727526 0.387392
0.134024 0.724459 0.387446
0.131047 0.721393 0.387501
0.12807 0.718327 0.387555
0.125093 0.715262 0.38761
0.122117 0.712197 0.387664
0.119142 0.709133 0.387719
0.116167 0.706069 0.387773
0.113193 0.703005 0.387828
0.110219 0.699942 0.387882
0.107245 0.69688 0.387937
0.104272 0.693818 0.387991
0.101299 0.690757 0.388045
0.0983272 0.687696 0.3881
0.0953557 0.684635 0.388154
0.0923846 0.681576 0.388209
0.089414 0.678516 0.388263
0.0864439 0.675457 0.388317
0.0834742 0.672399 0.388372
0.0805051 0.669341 0.388426
0.0775363 0.666284 0.38848
0.0745682 0.663227 0.388535
0.0716005 0.66017 0.388589
0.0686333 0.657114 0.388643
0.0656666 0.654059 0.388697
0.0627001 0.651004 0.388752
0.0597345 0.64795 0.388806
0.0567691 0.644896 0.38886
0.0538044 0.641842 0.388915
0.0508399 0.63879 0.388969
0.0478761 0.635737 0.389023
0.0449128 0.632685 0.389077
0.0419499 0.629634 0.389132
0.0389874 0.626583 0.389186
0.0360257 0.623532 0.38924
0.0330641 0.620482 0.389294
0.0301033 0.617433 0.389348
0.0271427 0.614384 0.389403
0.0241827 0.611336 0.389457
0.0212232 0.608288 0.389511
0.0182642 0.60524 0.389565
0.0153058 0.602193 0.389619
0.0123477 0.599147 0.389673
0.00939017 0.596101 0.389727
0.00643295 0.593055 0.389782
0.00347639 0.59001 0.389836
0.000520282 0.586966 0.38989
-0.00243537 0.583922 0.389944
-0.00539057 0.580879 0.389998
-0.0083453 0.577836 0.390052
-0.0112994 0.574793 0.390106
-0.0142532 0.571751 0.39016
-0.0172064 0.56871 0.390214
-0.0201591 0.565669 0.390268
-0.0231114 0.562628 0.390322
-0.026063 0.559588 0.390376
-0.0290144 0.556548 0.39043
-0.0319653 0.553509 0.390484
-0.0349156 0.550471 0.390538
-0.0378656 0.547433 0.390592
-0.0408149 0.544395 0.390646
-0.0437638 0.541358 0.3907
-0.0467122 0.538322 0.390754
-0.0496602 0.535286 0.390808
-0.0526077 0.53225 0.390862
-0.0555548 0.529215 0.390916
-0.0585013 0.52618 0.39097
-0.0614472 0.523146 0.391024
-0.0643929 0.520113 0.391078
-0.067338 0.51708 0.391132
-0.0702826 0.514047 0.391186
-0.0732268 0.511015 0.39124
-0.0761703 0.507983 0.391293
-0.0791136 0.504952 0.391347
-0.0820562 0.501921 0.391401
-0.0849985 0.498891 0.391455
-0.0879402 0.495862 0.391509
-0.0908815 0.492832 0.391563
-0.0938223 0.489804 0.391616
-0.0967626 0.486776 0.39167
-0.0997025 0.483748 0.391724
-0.102642 0.480721 0.391778
-0.105581 0.477694 0.391832
-0.108519 0.474668 0.391885
-0.111457 0.471642 0.391939
-0.114394 0.468617 0.391993
-0.117331 0.465592 0.392047
-0.120268 0.462568 0.3921
-0.123204 0.459544 0.392154
-0.126139 0.456521 0.392208
-0.129074 0.453498 0.392262
-0.132009 0.450476 0.392315
-0.134943 0.447454 0.392369
-0.137877 0.444433 0.392423
-0.14081 0.441412 0.392476
-0.143743 0.438391 0.39253
-0.146675 0.435371 0.392584
-0.149607 0.432352 0.392637
-0.152538 0.429333 0.392691
-0.155469 0.426315 0.392745
-0.158399 0.423297 0.392798
-0.161329 0.42028 0.392852
-0.164258 0.417263 0.392906
-0.167187 0.414246 0.392959
-0.170115 0.41123 0.393013
-0.173043 0.408215 0.393066
-0.175971 0.4052 0.39312
-0.178898 0.402185 0.393173
-0.181824 0.399171 0.393227
-0.18475 0.396158 0.393281
-0.187676 0.393145 0.393334
-0.190601 0.390132 0.393388
-0.193526 0.38712 0.393441
-0.19645 0.384109 0.393495
-0.199374 0.381098 0.393548
-0.202297 0.378087 0.393602
-0.205219 0.375077 0.393655
-0.208142 0.372067 0.393709
-0.211064 0.369058 0.393762
-0.213985 0.36605 0.393816
-0.216906 0.363042 0.393869
-0.219826 0.360034 0.393922
-0.222746 0.357027 0.393976
-0.225665 0.35402 0.394029
-0.228584 0.351014 0.394083
-0.231503 0.348008 0.394136
-0.234421 0.345003 0.39419
-0.237338 0.341998 0.394243
-0.240255 0.338994 0.394296
-0.243172 0.33599 0.39435
-0.246088 0.332987 0.394403
-0.249004 0.329984 0.394457
-0.251919 0.326982 0.39451
-0.254833 0.32398 0.394563
-0.257748 0.320979 0.394616
-0.260662 0.317978 0.39467
-0.263575 0.314978 0.394723
-0.266488 0.311978 0.394776
-0.2694 0.308978 0.39483
-0.272312 0.305979 0.394883
-0.275223 0.302981 0.394936
-0.278134 0.299983 0.39499
-0.281045 0.296986 0.395043
-0.283955 0.293989 0.395096
-0.286864 0.290992 0.395149
-0.289773 0.287996 0.395203
-0.292682 0.285001 0.395256
-0.29559 0.282006 0.395309
-0.298498 0.279011 0.395362
-0.301405 0.276017 0.395416
-0.304312 0.273023 0.395469
-0.307218 0.27003 0.395522
-0.310124 0.267038 0.395575
-0.313029 0.264046 0.395628
-0.315934 0.261054 0.395681
-0.318838 0.258063 0.395735
-0.321742 0.255072 0.395788
-0.324645 0.252082 0.395841
-0.327548 0.249092 0.395894
-0.330451 0.246103 0.395947
-0.333353 0.243114 0.396
-0.336254 0.240126 0.396053
-0.339156 0.237138 0.396106
-0.342056 0.234151 0.396159
-0.344956 0.231164 0.396213
-0.347856 0.228178 0.396266
-0.350755 0.225192 0.396319
-0.353654 0.222206 0.396372
-0.356552 0.219221 0.396425
-0.35945 0.216237 0.396478
-0.362347 0.213253 0.396531
-0.365244 0.21027 0.396584
-0.368141 0.207287 0.396637
-0.371037 0.204304 0.39669
-0.373932 0.201322 0.396743
-0.376827 0.198341 0.396796
-0.379722 0.19536 0.396849
-0.382616 0.192379 0.396902
-0.385509 0.189399 0.396955
-0.388403 0.186419 0.397008
-0.391295 0.18344 0.397061
-0.394188 0.180461 0.397114
-0.397079 0.177483 0.397167
-0.399971 0.174506 0.397219
-0.402861 0.171528 0.397272
-0.405752 0.168551 0.397325
-0.408642 0.165575 0.397378
-0.411531 0.162599 0.397431
-0.41442 0.159624 0.397484
-0.417309 0.156649 0.397537
-0.420197 0.153675 0.39759
-0.423084 0.150701 0.397642
-0.425971 0.147728 0.397695
-0.428858 0.144755 0.397748
-0.431744 0.141782 0.397801
-0.43463 0.13881 0.397854
-0.437515 0.135839 0.397907
-0.4404 0.132868 0.397959
-0.443284 0.129897 0.398012
-0.446168 0.126927 0.398065
-0.449052 0.123958 0.398118
-0.451934 0.120989 0.39817
-0.454817 0.11802 0.398223
-0.457699 0.115052 0.398276
-0.46058 0.112084 0.398329
-0.463461 0.109117 0.398381
-0.466342 0.10615 0.398434
-0.469222 0.103184 0.398487
-0.472102 0.100218 0.39854
-0.474981 0.097253 0.398592
-0.47786 0.0942882 0.398645
-0.480738 0.0913238 0.398698
-0.483616 0.08836 0.39875
-0.486493 0.0853966 0.398803
-0.48937 0.0824338 0.398856
-0.492247 0.0794715 0.398908
-0.495123 0.0765094 0.398961
-0.497998 0.0735479 0.399013
-0.500874 0.0705871 0.399066
-0.503748 0.0676265 0.399119
-0.506622 0.0646665 0.399171
-0.509496 0.0617067 0.399224
-0.512369 0.0587477 0.399277
-0.515242 0.0557892 0.399329
-0.518114 0.0528309 0.399382
-0.520986 0.0498734 0.399434
-0.523857 0.0469161 0.399487
-0.526728 0.0439594 0.399539
-0.529599 0.0410031 0.399592
-0.532469 0.0380474 0.399644
-0.535338 0.035092 0.399697
-0.538207 0.0321372 0.399749
-0.541076 0.029183 0.399802
-0.543947 0.0262328 0.399856
-0.546817 0.0232829 0.399909
-0.549687 0.0203338 0.399963
-0.552556 0.017385 0.400017
-0.555425 0.0144366 0.400071
-0.558294 0.0114888 0.400124
-0.561162 0.00854147 0.400178
-0.564029 0.00559466 0.400232
-0.566896 0.00264818 0.400285
-0.569763 -0.000297619 0.400339
-0.572629 -0.00324308 0.400393
-0.575494 -0.00618805 0.400446
-0.578359 -0.00913253 0.4005
-0.581224 -0.0120765 0.400553
-0.584088 -0.0150201 0.400607
-0.586952 -0.017963 0.400661
-0.589815 -0.0209055 0.400714
-0.592678 -0.0238476 0.400768
-0.59554 -0.026789 0.400821
-0.598402 -0.0297301 0.400875
-0.601263 -0.0326707 0.400928
-0.604124 -0.035611 0.400982
-0.606985 -0.0385504 0.401036
-0.609844 -0.0414896 0.401089
-0.612704 -0.0444282 0.401143
-0.615563 -0.0473665 0.401196
-0.618421 -0.0503042 0.40125
-0.621279 -0.0532415 0.401303
-0.624137 -0.0561782 0.401357
-0.626994 -0.0591144 0.40141
-0.629851 -0.0620502 0.401464
-0.632707 -0.0649854 0.401517
-0.635563 -0.0679203 0.40157
-0.638418 -0.0708547 0.401624
-0.641273 -0.0737886 0.401677
-0.644127 -0.076722 0.401731
-0.646981 -0.0796549 0.401784
-0.649835 -0.0825873 0.401838
-0.652687 -0.0855193 0.401891
-0.65554 -0.0884507 0.401944
-0.658392 -0.0913816 0.401998
-0.661243 -0.0943121 0.402051
-0.664094 -0.0972422 0.402104
-0.666945 -0.100172 0.402158
-0.669795 -0.103101 0.402211
-0.672645 -0.106029 0.402264
-0.675494 -0.108957 0.402318
-0.678343 -0.111885 0.402371
-0.681191 -0.114812 0.402424
-0.684039 -0.117739 0.402478
-0.686886 -0.120665 0.402531
-0.689733 -0.123591 0.402584
-0.69258 -0.126516 0.402638
-0.695426 -0.129441 0.402691
-0.698271 -0.132365 0.402744
-0.701116 -0.135289 0.402797
-0.70394 -0.138247 0.40284
-0.706748 -0.141233 0.402873
-0.709558 -0.144213 0.402908
-0.712399 -0.14714 0.40296
-0.71524 -0.150065 0.403012
-0.71808 -0.152991 0.403064
-0.72092 -0.155915 0.403116
-0.71993 -0.165611 0.40107
-0.722268 -0.16945 0.400842
-0.724607 -0.173292 0.400614
-0.727227 -0.176637 0.400539
-0.732744 -0.174783 0.402066
-0.736031 -0.17691 0.402365
-0.739314 -0.179036 0.402662
-0.742595 -0.18116 0.40296
-0.745873 -0.183281 0.403257
-0.749148 -0.185401 0.403554
-0.752085 -0.188133 0.403664
-0.75492 -0.191052 0.403716
-0.757754 -0.193971 0.403767
-0.760587 -0.196889 0.403819
-0.76342 -0.199806 0.403871
-0.766253 -0.202724 0.403923
-0.769085 -0.205641 0.403975
-0.771917 -0.208557 0.404027
-0.774748 -0.211473 0.404078
-0.777579 -0.214388 0.40413
-0.780409 -0.217303 0.404182
-0.783239 -0.220218 0.404234
-0.786069 -0.223132 0.404286
-0.788898 -0.226045 0.404337
-0.791726 -0.228958 0.404389
-0.794554 -0.231871 0.404441
-0.797382 -0.234783 0.404493
-0.800209 -0.237695 0.404544
-0.803036 -0.240606 0.404596
-0.805862 -0.243517 0.404648
-0.808688 -0.246427 0.4047
-0.811514 -0.249337 0.404751
-0.814339 -0.252246 0.404803
-0.817163 -0.255155 0.404855
-0.819987 -0.258064 0.404906
-0.822811 -0.260972 0.404958
-0.825634 -0.263879 0.40501
-0.828457 -0.266786 0.405062
-0.831279 -0.269693 0.405113
-0.834101 -0.272599 0.405165
-0.836922 -0.275505 0.405216
-0.839743 -0.27841 0.405268
-0.842564 -0.281315 0.40532
-0.845384 -0.284219 0.405371
-0.848176 -0.28718 0.405406
-0.850652 -0.290807 0.405248
-0.853095 -0.294506 0.405069
-0.855452 -0.298393 0.404835
-0.85781 -0.302283 0.404602
0.376717 0.970179 0.377927
0.372622 0.967527 0.378301
0.368723 0.964796 0.378617
0.364916 0.96203 0.378907
0.36171 0.959006 0.379019
0.358695 0.955902 0.379074
0.355681 0.952797 0.37913
0.352667 0.949694 0.379185
0.349654 0.94659 0.379241
0.346641 0.943487 0.379296
0.343629 0.940385 0.379352
0.340617 0.937283 0.379407
0.337606 0.934182 0.379463
0.334595 0.931081 0.379518
0.331585 0.927981 0.379574
0.328575 0.924881 0.379629
0.325566 0.921782 0.379685
0.322557 0.918683 0.37974
0.319549 0.915585 0.379795
0.316541 0.912488 0.379851
0.313534 0.90939 0.379906
0.310527 0.906294 0.379962
0.307521 0.903198 0.380017
0.304515 0.900102 0.380072
0.30151 0.897007 0.380128
0.298505 0.893912 0.380183
0.2955 0.890818 0.380238
0.292497 0.887724 0.380294
0.289493 0.884631 0.380349
0.28649 0.881539 0.380404
0.283488 0.878447 0.38046
0.280486 0.875355 0.380515
0.277485 0.872264 0.38057
0.274484 0.869173 0.380625
0.271483 0.866083 0.380681
0.268484 0.862994 0.380736
0.265614 0.85984 0.380751
0.263479 0.856319 0.380539
0.261343 0.852796 0.380326
0.259206 0.849271 0.380113
0.257067 0.845744 0.3799
0.254927 0.842214 0.379687
0.258329 0.835852 0.377746
0.252454 0.834219 0.378695
0.248472 0.831625 0.379055
0.244494 0.829033 0.379415
0.235517 0.829042 0.381343
0.232523 0.825958 0.381398
0.229529 0.822875 0.381453
0.226536 0.819793 0.381509
0.223544 0.816711 0.381564
0.220552 0.813629 0.381619
0.21756 0.810548 0.381674
0.214569 0.807468 0.381729
0.211579 0.804388 0.381784
0.208589 0.801308 0.381839
0.205599 0.798229 0.381894
0.20261 0.795151 0.381949
0.199621 0.792073 0.382004
0.196633 0.788996 0.382059
0.193646 0.785919 0.382114
0.190658 0.782842 0.382169
0.187672 0.779766 0.382224
0.184686 0.776691 0.382279
0.1817 0.773616 0.382334
0.178715 0.770542 0.382389
0.17573 0.767468 0.382444
0.172746 0.764394 0.382499
0.169762 0.761321 0.382554
0.166779 0.758249 0.382609
0.163796 0.755177 0.382664
0.160814 0.752106 0.382719
0.157832 0.749035 0.382774
0.15485 0.745964 0.382829
0.15187 0.742894 0.382884
0.148889 0.739825 0.382939
0.145909 0.736756 0.382994
0.14293 0.733688 0.383048
0.139951 0.73062 0.383103
0.136973 0.727552 0.383158
0.133995 0.724485 0.383213
0.131017 0.721419 0.383268
0.128041 0.718353 0.383323
0.125064 0.715288 0.383377
0.122088 0.712223 0.383432
0.119113 0.709159 0.383487
0.116138 0.706095 0.383542
0.113163 0.703031 0.383597
0.110189 0.699968 0.383651
0.107216 0.696906 0.383706
0.104243 0.693844 0.383761
0.10127 0.690783 0.383816
0.0982981 0.687722 0.38387
0.0953266 0.684661 0.383925
0.0923553 0.681601 0.38398
0.0893847 0.678542 0.384035
0.0864148 0.675483 0.384089
0.0834451 0.672425 0.384144
0.0804758 0.669367 0.384199
0.0775072 0.666309 0.384253
0.0745389 0.663253 0.384308
0.0715713 0.660196 0.384363
0.0686041 0.65714 0.384417
0.0656373 0.654085 0.384472
0.062671 0.65103 0.384527
0.0597054 0.647975 0.384581
0.05674 0.644922 0.384636
0.0537753 0.641868 0.38469
0.0508108 0.638815 0.384745
0.047847 0.635763 0.3848
0.0448837 0.632711 0.384854
0.0419208 0.62966 0.384909
0.0389584 0.626609 0.384963
0.0359966 0.623558 0.385018
0.0330351 0.620508 0.385072
0.0300742 0.617459 0.385127
0.0271136 0.61441 0.385182
0.0241536 0.611361 0.385236
0.0211942 0.608314 0.385291
0.0182351 0.605266 0.385345
0.0152767 0.602219 0.3854
0.0123186 0.599173 0.385454
0.00936113 0.596127 0.385508
0.00640391 0.593081 0.385563
0.00344736 0.590036 0.385617
0.000491248 0.586992 0.385672
-0.0024644 0.583948 0.385726
-0.0054196 0.580904 0.385781
-0.00837433 0.577861 0.385835
-0.0113284 0.574819 0.38589
-0.0142823 0.571777 0.385944
-0.0172354 0.568735 0.385998
-0.0201882 0.565694 0.386053
-0.0231404 0.562654 0.386107
-0.026092 0.559614 0.386161
-0.0290434 0.556574 0.386216
-0.0319943 0.553535 0.38627
-0.0349446 0.550497 0.386324
-0.0378946 0.547459 0.386379
-0.0408439 0.544421 0.386433
-0.0437928 0.541384 0.386487
-0.0467412 0.538347 0.386542
-0.0496892 0.535311 0.386596
-0.0526367 0.532276 0.38665
-0.0555838 0.529241 0.386705
-0.0585302 0.526206 0.386759
-0.0614762 0.523172 0.386813
-0.0644219 0.520138 0.386867
-0.067367 0.517105 0.386922
-0.0703116 0.514073 0.386976
-0.0732558 0.511041 0.38703
-0.0761993 0.508009 0.387084
-0.0791425 0.504978 0.387139
-0.0820851 0.501947 0.387193
-0.0850275 0.498917 0.387247
-0.0879692 0.495887 0.387301
-0.0909104 0.492858 0.387355
-0.0938512 0.489829 0.387409
-0.0967916 0.486801 0.387464
-0.0997315 0.483774 0.387518
-0.102671 0.480746 0.387572
-0.10561 0.47772 0.387626
-0.108548 0.474693 0.38768
-0.111486 0.471668 0.387734
-0.114423 0.468642 0.387788
-0.11736 0.465618 0.387842
-0.120297 0.462593 0.387896
-0.123233 0.45957 0.387951
-0.126168 0.456546 0.388005
-0.129103 0.453524 0.388059
-0.132038 0.450501 0.388113
-0.134972 0.44748 0.388167
-0.137906 0.444458 0.388221
-0.140839 0.441437 0.388275
-0.143772 0.438417 0.388329
-0.146704 0.435397 0.388383
-0.149636 0.432378 0.388437
-0.152567 0.429359 0.388491
-0.155498 0.426341 0.388545
-0.158428 0.423323 0.388599
-0.161358 0.420305 0.388653
-0.164287 0.417288 0.388707
-0.167216 0.414272 0.388761
-0.170144 0.411256 0.388815
-0.173072 0.40824 0.388868
-0.176 0.405226 0.388922
-0.178927 0.402211 0.388976
-0.181853 0.399197 0.38903
-0.184779 0.396184 0.389084
-0.187705 0.393171 0.389138
-0.19063 0.390158 0.389192
-0.193555 0.387146 0.389246
-0.196479 0.384134 0.3893
-0.199402 0.381123 0.389353
-0.202326 0.378113 0.389407
-0.205248 0.375103 0.389461
-0.208171 0.372093 0.389515
-0.211092 0.369084 0.389569
-0.214014 0.366075 0.389623
-0.216934 0.363067 0.389676
-0.219855 0.36006 0.38973
-0.222775 0.357052 0.389784
-0.225694 0.354046 0.389838
-0.228613 0.35104 0.389891
-0.231532 0.348034 0.389945
-0.23445 0.345029 0.389999
-0.237367 0.342024 0.390053
-0.240284 0.33902 0.390106
-0.243201 0.336016 0.39016
-0.246117 0.333013 0.390214
-0.249033 0.33001 0.390268
-0.251948 0.327008 0.390321
-0.254862 0.324006 0.390375
-0.257777 0.321004 0.390428
-0.26069 0.318004 0.390482
-0.263604 0.315003 0.390536
-0.266517 0.312003 0.39059
-0.269429 0.309004 0.390643
-0.272341 0.306005 0.390697
-0.275252 0.303007 0.39075
-0.278163 0.300009 0.390804
-0.281074 0.297011 0.390858
-0.283984 0.294014 0.390911
-0.286893 0.291018 0.390965
-0.289802 0.288022 0.391018
-0.292711 0.285026 0.391072
-0.295619 0.282031 0.391126
-0.298526 0.279037 0.391179
-0.301434 0.276043 0.391233
-0.30434 0.273049 0.391286
-0.307247 0.270056 0.39134
-0.310152 0.267063 0.391393
-0.313058 0.264071 0.391447
-0.315962 0.261079 0.3915
-0.318867 0.258088 0.391554
-0.321771 0.255098 0.391607
-0.324674 0.252107 0.391661
-0.327577 0.249118 0.391714
-0.33048 0.246128 0.391768
-0.333382 0.24314 0.391821
-0.336283 0.240151 0.391874
-0.339184 0.237164 0.391928
-0.342085 0.234176 0.391981
-0.344985 0.231189 0.392035
-0.347885 0.228203 0.392088
-0.350784 0.225217 0.392142
-0.353683 0.222232 0.392195
-0.356581 0.219247 0.392248
-0.359479 0.216263 0.392302
-0.362376 0.213279 0.392355
-0.365273 0.210295 0.392408
-0.36817 0.207312 0.392462
-0.371066 0.20433 0.392515
-0.373961 0.201348 0.392568
-0.376856 0.198366 0.392622
-0.379751 0.195385 0.392675
-0.382645 0.192404 0.392728
-0.385538 0.189424 0.392782
-0.388431 0.186445 0.392835
-0.391324 0.183465 0.392888
-0.394216 0.180487 0.392941
-0.397108 0.177509 0.392995
-0.399999 0.174531 0.393048
-0.40289 0.171554 0.393101
-0.405781 0.168577 0.393154
-0.40867 0.165601 0.393208
-0.41156 0.162625 0.393261
-0.414449 0.15965 0.393314
-0.417337 0.156675 0.393367
-0.420225 0.1537 0.39342
-0.423113 0.150726 0.393474
-0.426 0.147753 0.393527
-0.428887 0.14478 0.39358
-0.431773 0.141808 0.393633
-0.434658 0.138836 0.393686
-0.437544 0.135864 0.393739
-0.440429 0.132893 0.393793
-0.443313 0.129923 0.393846
-0.446197 0.126953 0.393899
-0.44908 0.123983 0.393952
-0.451963 0.121014 0.394005
-0.454846 0.118045 0.394058
-0.457728 0.115077 0.394111
-0.460609 0.11211 0.394164
-0.46349 0.109142 0.394217
-0.466371 0.106176 0.39427
-0.469251 0.103209 0.394323
-0.472131 0.100244 0.394376
-0.47501 0.0972784 0.394429
-0.477889 0.0943136 0.394482
-0.480767 0.0913493 0.394536
-0.483645 0.0883854 0.394588
-0.486522 0.0854221 0.394641
-0.489399 0.0824592 0.394695
-0.492276 0.0794969 0.394748
-0.495151 0.0765348 0.3948
-0.498027 0.0735733 0.394853
-0.500902 0.0706125 0.394906
-0.503777 0.0676519 0.394959
-0.506651 0.0646919 0.395012
-0.509525 0.0617321 0.395065
-0.512398 0.0587731 0.395118
-0.515271 0.0558146 0.395171
-0.518143 0.0528563 0.395224
-0.521015 0.0498988 0.395277
-0.523886 0.0469415 0.39533
-0.526757 0.0439848 0.395383
-0.529627 0.0410285 0.395435
-0.532498 0.0380728 0.395488
-0.535367 0.0351174 0.395541
-0.538236 0.0321626 0.395594
-0.541105 0.0292082 0.395647
-0.543973 0.0262544 0.3957
-0.546843 0.0233044 0.395754
-0.549713 0.0203552 0.395808
-0.552582 0.0174063 0.395862
-0.555451 0.014458 0.395916
-0.558319 0.0115102 0.39597
-0.561187 0.00856284 0.396024
-0.564055 0.00561602 0.396078
-0.566922 0.00266953 0.396132
-0.569788 -0.000276255 0.396186
-0.572654 -0.00322176 0.39624
-0.57552 -0.00616673 0.396294
-0.578385 -0.00911121 0.396348
-0.58125 -0.0120552 0.396402
-0.584114 -0.0149986 0.396456
-0.586978 -0.0179416 0.39651
-0.589841 -0.0208842 0.396564
-0.592704 -0.0238263 0.396617
-0.595566 -0.0267678 0.396671
-0.598428 -0.0297088 0.396725
-0.601289 -0.0326495 0.396779
-0.60415 -0.0355895 0.396833
-0.60701 -0.0385292 0.396887
-0.60987 -0.0414684 0.396941
-0.61273 -0.044407 0.396995
-0.615589 -0.0473453 0.397048
-0.618447 -0.050283 0.397102
-0.621305 -0.0532203 0.397156
-0.624163 -0.056157 0.39721
-0.62702 -0.0590933 0.397264
-0.629877 -0.062029 0.397318
-0.632733 -0.0649642 0.397371
-0.635589 -0.0678992 0.397425
-0.638444 -0.0708335 0.397479
-0.641299 -0.0737675 0.397533
-0.644153 -0.0767006 0.397587
-0.647007 -0.0796338 0.39764
-0.64986 -0.0825662 0.397694
-0.652713 -0.085498 0.397748
-0.655566 -0.0884294 0.397802
-0.658418 -0.0913605 0.397855
-0.661269 -0.0942911 0.397909
-0.664121 -0.0972209 0.397963
-0.666971 -0.100151 0.398016
-0.669821 -0.10308 0.39807
-0.672671 -0.106008 0.398124
-0.67552 -0.108936 0.398177
-0.678369 -0.111864 0.398231
-0.681217 -0.114791 0.398285
-0.684065 -0.117718 0.398338
-0.686912 -0.120644 0.398392
-0.689759 -0.12357 0.398446
-0.692605 -0.126495 0.398499
-0.695451 -0.12942 0.398553
-0.698297 -0.132344 0.398606
-0.701142 -0.135268 0.39866
-0.703966 -0.138226 0.398703
-0.706774 -0.141212 0.398736
-0.709586 -0.14419 0.398773
-0.712427 -0.147116 0.398825
-0.715268 -0.150041 0.398877
-0.718108 -0.152967 0.398929
-0.720947 -0.155891 0.398982
-0.720025 -0.165469 0.39696
-0.722362 -0.169308 0.39673
-0.724701 -0.17315 0.3965
-0.727256 -0.176612 0.396389
-0.732772 -0.174758 0.397926
-0.736059 -0.176885 0.398226
-0.739343 -0.179011 0.398526
-0.742624 -0.181134 0.398825
-0.745901 -0.183256 0.399124
-0.749176 -0.185376 0.399423
-0.752114 -0.188108 0.399533
-0.754948 -0.191027 0.399585
-0.757782 -0.193945 0.399638
-0.760616 -0.196863 0.39969
-0.763449 -0.199781 0.399742
-0.766281 -0.202699 0.399794
-0.769113 -0.205615 0.399846
-0.771945 -0.208532 0.399898
-0.774776 -0.211448 0.399951
-0.777607 -0.214363 0.400003
-0.780438 -0.217278 0.400055
-0.783268 -0.220193 0.400107
-0.786097 -0.223107 0.400159
-0.788926 -0.22602 0.400211
-0.791755 -0.228933 0.400263
-0.794583 -0.231846 0.400315
-0.79741 -0.234758 0.400367
-0.800238 -0.23767 0.400419
-0.803064 -0.240581 0.400472
-0.805891 -0.243492 0.400524
-0.808717 -0.246402 0.400576
-0.811542 -0.249312 0.400628
-0.814367 -0.252221 0.40068
-0.817192 -0.25513 0.400732
-0.820016 -0.258039 0.400784
-0.822839 -0.260947 0.400836
-0.825662 -0.263854 0.400888
-0.828485 -0.266761 0.40094
-0.831307 -0.269668 0.400992
-0.834129 -0.272574 0.401044
-0.836951 -0.27548 0.401096
-0.839772 -0.278385 0.401148
-0.842592 -0.28129 0.4012
-0.845412 -0.284194 0.401252
-0.848204 -0.287155 0.401287
-0.85068 -0.290782 0.401127
-0.853128 -0.29447 0.40095
-0.855485 -0.298357 0.400715
-0.857844 -0.302247 0.400481
0.376676 0.97021 0.373663
0.372581 0.967558 0.37404
0.368694 0.964822 0.374354
0.364886 0.962056 0.374646
0.36168 0.959033 0.374759
0.358666 0.955928 0.374815
0.355652 0.952823 0.374871
0.352638 0.94972 0.374927
0.349625 0.946616 0.374983
0.346612 0.943514 0.375038
0.3436 0.940411 0.375094
0.340588 0.937309 0.37515
0.337577 0.934208 0.375206
0.334566 0.931107 0.375262
0.331556 0.928007 0.375317
0.328546 0.924908 0.375373
0.325537 0.921808 0.375429
0.322528 0.91871 0.375485
0.31952 0.915611 0.37554
0.316512 0.912514 0.375596
0.313505 0.909417 0.375652
0.310498 0.90632 0.375708
0.307491 0.903224 0.375763
0.304486 0.900128 0.375819
0.30148 0.897033 0.375875
0.298476 0.893938 0.37593
0.295471 0.890844 0.375986
0.292467 0.88775 0.376042
0.289464 0.884657 0.376098
0.286461 0.881565 0.376153
0.283459 0.878473 0.376209
0.280457 0.875381 0.376264
0.277455 0.87229 0.37632
0.274455 0.869199 0.376376
0.271454 0.866109 0.376431
0.268454 0.86302 0.376487
0.265585 0.859866 0.376502
0.26345 0.856345 0.376288
0.261314 0.852822 0.376074
0.259176 0.849297 0.37586
0.257037 0.84577 0.375646
0.254898 0.84224 0.375431
0.2583 0.835878 0.373478
0.252298 0.83431 0.374473
0.248317 0.831716 0.374835
0.244339 0.829124 0.375198
0.235488 0.829068 0.377098
0.232494 0.825984 0.377153
0.2295 0.822901 0.377209
0.226507 0.819819 0.377264
0.223515 0.816737 0.37732
0.220523 0.813655 0.377375
0.217531 0.810574 0.377431
0.21454 0.807494 0.377486
0.211549 0.804414 0.377542
0.208559 0.801334 0.377597
0.20557 0.798255 0.377652
0.202581 0.795177 0.377708
0.199592 0.792099 0.377763
0.196604 0.789022 0.377819
0.193616 0.785945 0.377874
0.190629 0.782868 0.377929
0.187642 0.779792 0.377985
0.184656 0.776717 0.37804
0.181671 0.773642 0.378095
0.178685 0.770567 0.378151
0.175701 0.767494 0.378206
0.172716 0.76442 0.378261
0.169733 0.761347 0.378317
0.166749 0.758275 0.378372
0.163767 0.755203 0.378427
0.160784 0.752131 0.378482
0.157803 0.749061 0.378538
0.154821 0.74599 0.378593
0.15184 0.74292 0.378648
0.14886 0.739851 0.378703
0.14588 0.736782 0.378759
0.142901 0.733713 0.378814
0.139922 0.730646 0.378869
0.136944 0.727578 0.378924
0.133966 0.724511 0.37898
0.130988 0.721445 0.379035
0.128012 0.718379 0.37909
0.125035 0.715314 0.379145
0.122059 0.712249 0.3792
0.119084 0.709184 0.379255
0.116109 0.70612 0.37931
0.113134 0.703057 0.379366
0.11016 0.699994 0.379421
0.107187 0.696932 0.379476
0.104214 0.69387 0.379531
0.101241 0.690808 0.379586
0.098269 0.687748 0.379641
0.0952975 0.684687 0.379696
0.0923262 0.681627 0.379751
0.0893556 0.678568 0.379806
0.0863856 0.675509 0.379861
0.083416 0.672451 0.379916
0.0804467 0.669393 0.379971
0.0774782 0.666335 0.380026
0.0745098 0.663278 0.380081
0.0715422 0.660222 0.380136
0.068575 0.657166 0.380191
0.0656082 0.654111 0.380246
0.0626419 0.651056 0.380301
0.0596763 0.648001 0.380356
0.0567109 0.644947 0.380411
0.0537462 0.641894 0.380466
0.0507818 0.638841 0.380521
0.047818 0.635789 0.380576
0.0448546 0.632737 0.380631
0.0418917 0.629685 0.380686
0.0389293 0.626634 0.380741
0.0359675 0.623584 0.380796
0.033006 0.620534 0.380851
0.0300451 0.617485 0.380906
0.0270845 0.614436 0.38096
0.0241246 0.611387 0.381015
0.0211651 0.608339 0.38107
0.0182061 0.605292 0.381125
0.0152477 0.602245 0.38118
0.0122896 0.599198 0.381235
0.00933209 0.596152 0.381289
0.00637487 0.593107 0.381344
0.00341832 0.590062 0.381399
0.000462214 0.587017 0.381454
-0.00249343 0.583974 0.381509
-0.00544863 0.58093 0.381563
-0.00840336 0.577887 0.381618
-0.0113574 0.574845 0.381673
-0.0143113 0.571803 0.381728
-0.0172645 0.568761 0.381782
-0.0202172 0.56572 0.381837
-0.0231694 0.56268 0.381892
-0.026121 0.559639 0.381947
-0.0290724 0.5566 0.382001
-0.0320233 0.553561 0.382056
-0.0349736 0.550522 0.382111
-0.0379236 0.547484 0.382165
-0.0408729 0.544447 0.38222
-0.0438218 0.54141 0.382275
-0.0467702 0.538373 0.382329
-0.0497182 0.535337 0.382384
-0.0526657 0.532301 0.382439
-0.0556128 0.529266 0.382493
-0.0585592 0.526232 0.382548
-0.0615052 0.523198 0.382602
-0.0644509 0.520164 0.382657
-0.067396 0.517131 0.382712
-0.0703406 0.514098 0.382766
-0.0732847 0.511066 0.382821
-0.0762283 0.508035 0.382875
-0.0791715 0.505003 0.38293
-0.0821141 0.501973 0.382984
-0.0850565 0.498943 0.383039
-0.0879982 0.495913 0.383093
-0.0909394 0.492884 0.383148
-0.0938802 0.489855 0.383202
-0.0968205 0.486827 0.383257
-0.0997604 0.483799 0.383311
-0.1027 0.480772 0.383366
-0.105639 0.477745 0.38342
-0.108577 0.474719 0.383475
-0.111515 0.471693 0.383529
-0.114452 0.468668 0.383584
-0.117389 0.465643 0.383638
-0.120326 0.462619 0.383693
-0.123262 0.459595 0.383747
-0.126197 0.456572 0.383801
-0.129132 0.453549 0.383856
-0.132067 0.450527 0.38391
-0.135001 0.447505 0.383965
-0.137935 0.444484 0.384019
-0.140868 0.441463 0.384073
-0.143801 0.438443 0.384128
-0.146733 0.435423 0.384182
-0.149664 0.432403 0.384236
-0.152596 0.429384 0.384291
-0.155527 0.426366 0.384345
-0.158457 0.423348 0.384399
-0.161387 0.420331 0.384454
-0.164316 0.417314 0.384508
-0.167245 0.414297 0.384562
-0.170173 0.411282 0.384616
-0.173101 0.408266 0.384671
-0.176029 0.405251 0.384725
-0.178956 0.402237 0.384779
-0.181882 0.399223 0.384833
-0.184808 0.396209 0.384888
-0.187734 0.393196 0.384942
-0.190659 0.390184 0.384996
-0.193583 0.387172 0.38505
-0.196508 0.38416 0.385104
-0.199431 0.381149 0.385159
-0.202354 0.378138 0.385213
-0.205277 0.375128 0.385267
-0.208199 0.372119 0.385321
-0.211121 0.36911 0.385375
-0.214043 0.366101 0.385429
-0.216963 0.363093 0.385484
-0.219884 0.360085 0.385538
-0.222804 0.357078 0.385592
-0.225723 0.354071 0.385646
-0.228642 0.351065 0.3857
-0.23156 0.348059 0.385754
-0.234478 0.345054 0.385808
-0.237396 0.34205 0.385862
-0.240313 0.339045 0.385916
-0.24323 0.336041 0.38597
-0.246146 0.333038 0.386024
-0.249061 0.330035 0.386078
-0.251977 0.327033 0.386132
-0.254891 0.324031 0.386186
-0.257805 0.32103 0.38624
-0.260719 0.318029 0.386295
-0.263632 0.315029 0.386348
-0.266545 0.312029 0.386403
-0.269458 0.309029 0.386456
-0.272369 0.306031 0.38651
-0.275281 0.303032 0.386564
-0.278192 0.300034 0.386618
-0.281102 0.297037 0.386672
-0.284012 0.29404 0.386726
-0.286922 0.291043 0.38678
-0.289831 0.288047 0.386834
-0.29274 0.285052 0.386888
-0.295648 0.282057 0.386942
-0.298555 0.279062 0.386996
-0.301462 0.276068 0.38705
-0.304369 0.273075 0.387104
-0.307275 0.270081 0.387157
-0.310181 0.267089 0.387211
-0.313086 0.264097 0.387265
-0.315991 0.261105 0.387319
-0.318896 0.258114 0.387373
-0.3218 0.255123 0.387427
-0.324703 0.252133 0.38748
-0.327606 0.249143 0.387534
-0.330509 0.246154 0.387588
-0.33341 0.243165 0.387642
-0.336312 0.240177 0.387696
-0.339213 0.237189 0.387749
-0.342114 0.234202 0.387803
-0.345014 0.231215 0.387857
-0.347914 0.228229 0.387911
-0.350813 0.225243 0.387964
-0.353712 0.222257 0.388018
-0.35661 0.219272 0.388072
-0.359508 0.216288 0.388125
-0.362405 0.213304 0.388179
-0.365302 0.210321 0.388233
-0.368198 0.207338 0.388287
-0.371094 0.204355 0.38834
-0.37399 0.201373 0.388394
-0.376885 0.198392 0.388448
-0.379779 0.195411 0.388501
-0.382673 0.19243 0.388555
-0.385567 0.18945 0.388608
-0.38846 0.18647 0.388662
-0.391353 0.183491 0.388716
-0.394245 0.180512 0.388769
-0.397137 0.177534 0.388823
-0.400028 0.174557 0.388877
-0.402919 0.171579 0.38893
-0.405809 0.168602 0.388984
-0.408699 0.165626 0.389037
-0.411589 0.16265 0.389091
-0.414477 0.159675 0.389144
-0.417366 0.1567 0.389198
-0.420254 0.153726 0.389251
-0.423142 0.150752 0.389305
-0.426029 0.147779 0.389358
-0.428915 0.144806 0.389412
-0.431801 0.141833 0.389465
-0.434687 0.138861 0.389519
-0.437572 0.13589 0.389572
-0.440457 0.132919 0.389626
-0.443342 0.129948 0.389679
-0.446225 0.126978 0.389733
-0.449109 0.124009 0.389786
-0.451992 0.12104 0.38984
-0.454874 0.118071 0.389893
-0.457756 0.115103 0.389946
-0.460638 0.112135 0.39
-0.463519 0.109168 0.390053
-0.466399 0.106201 0.390107
-0.46928 0.103235 0.39016
-0.472159 0.100269 0.390213
-0.475038 0.0973039 0.390267
-0.477917 0.094339 0.39032
-0.480795 0.0913747 0.390373
-0.483673 0.0884108 0.390427
-0.486551 0.0854475 0.39048
-0.489428 0.0824846 0.390533
-0.492304 0.0795223 0.390587
-0.49518 0.0765603 0.39064
-0.498056 0.0735987 0.390693
-0.500931 0.0706379 0.390747
-0.503805 0.0676773 0.3908
-0.50668 0.0647173 0.390853
-0.509553 0.0617575 0.390906
-0.512426 0.0587985 0.39096
-0.515299 0.05584 0.391013
-0.518171 0.0528817 0.391066
-0.521043 0.0499242 0.391119
-0.523915 0.0469669 0.391173
-0.526786 0.0440102 0.391226
-0.529656 0.0410539 0.391279
-0.532526 0.0380982 0.391332
-0.535396 0.0351428 0.391385
-0.538265 0.032188 0.391439
-0.541133 0.0292336 0.391492
-0.544001 0.0262798 0.391545
-0.546869 0.0233263 0.391598
-0.549739 0.0203766 0.391652
-0.552608 0.0174277 0.391707
-0.555477 0.0144794 0.391761
-0.558345 0.0115315 0.391815
-0.561213 0.00858422 0.39187
-0.564081 0.00563739 0.391924
-0.566948 0.00269086 0.391978
-0.569814 -0.000254936 0.392033
-0.57268 -0.00320044 0.392087
-0.575546 -0.00614542 0.392141
-0.578411 -0.0090899 0.392196
-0.581276 -0.0120339 0.39225
-0.58414 -0.0149773 0.392304
-0.587003 -0.0179203 0.392359
-0.589867 -0.0208629 0.392413
-0.592729 -0.0238049 0.392467
-0.595592 -0.0267465 0.392521
-0.598454 -0.0296876 0.392576
-0.601315 -0.0326282 0.39263
-0.604176 -0.0355683 0.392684
-0.607036 -0.0385079 0.392738
-0.609896 -0.0414472 0.392792
-0.612756 -0.0443858 0.392847
-0.615615 -0.047324 0.392901
-0.618473 -0.0502618 0.392955
-0.621331 -0.0531991 0.393009
-0.624189 -0.0561356 0.393063
-0.627046 -0.0590719 0.393118
-0.629903 -0.0620078 0.393172
-0.632759 -0.0649431 0.393226
-0.635615 -0.067878 0.39328
-0.63847 -0.0708122 0.393334
-0.641325 -0.0737461 0.393388
-0.644179 -0.0766796 0.393442
-0.647033 -0.0796124 0.393496
-0.649886 -0.0825449 0.393551
-0.652739 -0.085477 0.393605
-0.655592 -0.0884083 0.393659
-0.658444 -0.0913392 0.393713
-0.661295 -0.0942698 0.393767
-0.664146 -0.0971999 0.393821
-0.666997 -0.100129 0.393875
-0.669847 -0.103059 0.393929
-0.672697 -0.105987 0.393983
-0.675546 -0.108915 0.394037
-0.678395 -0.111843 0.394091
-0.681243 -0.11477 0.394145
-0.684091 -0.117697 0.394199
-0.686938 -0.120623 0.394253
-0.689785 -0.123549 0.394307
-0.692631 -0.126474 0.394361
-0.695477 -0.129399 0.394415
-0.698323 -0.132323 0.394469
-0.701168 -0.135247 0.394523
-0.703992 -0.138205 0.394565
-0.7068 -0.141191 0.394599
-0.709614 -0.144166 0.394637
-0.712455 -0.147092 0.394689
-0.715295 -0.150018 0.394742
-0.718135 -0.152943 0.394795
-0.720975 -0.155867 0.394847
-0.720119 -0.165327 0.39285
-0.722457 -0.169166 0.392619
-0.724796 -0.173007 0.392387
-0.727284 -0.176587 0.392239
-0.732801 -0.174732 0.393785
-0.736088 -0.17686 0.394087
-0.739371 -0.178985 0.394389
-0.742652 -0.181109 0.39469
-0.74593 -0.183231 0.394991
-0.749204 -0.185351 0.395292
-0.752142 -0.188082 0.395403
-0.754977 -0.191001 0.395455
-0.75781 -0.19392 0.395508
-0.760644 -0.196838 0.39556
-0.763477 -0.199756 0.395613
-0.76631 -0.202673 0.395665
-0.769142 -0.20559 0.395718
-0.771974 -0.208506 0.39577
-0.774805 -0.211422 0.395823
-0.777636 -0.214338 0.395875
-0.780466 -0.217253 0.395928
-0.783296 -0.220167 0.39598
-0.786126 -0.223081 0.396032
-0.788955 -0.225995 0.396085
-0.791783 -0.228908 0.396137
-0.794611 -0.23182 0.39619
-0.797439 -0.234733 0.396242
-0.800266 -0.237644 0.396295
-0.803093 -0.240556 0.396347
-0.805919 -0.243466 0.396399
-0.808745 -0.246377 0.396452
-0.81157 -0.249287 0.396504
-0.814395 -0.252196 0.396556
-0.81722 -0.255105 0.396609
-0.820044 -0.258014 0.396661
-0.822868 -0.260922 0.396713
-0.825691 -0.263829 0.396766
-0.828514 -0.266736 0.396818
-0.831336 -0.269643 0.39687
-0.834158 -0.272549 0.396923
-0.836979 -0.275455 0.396975
-0.8398 -0.27836 0.397027
-0.84262 -0.281265 0.397079
-0.84544 -0.284169 0.397132
-0.848233 -0.28713 0.397167
-0.850708 -0.290757 0.397007
-0.853162 -0.294434 0.396832
-0.855519 -0.298321 0.396596
-0.857877 -0.302211 0.396359
0.376635 0.970241 0.3694
0.37254 0.967589 0.369779
0.368664 0.964848 0.370092
0.364857 0.962082 0.370386
0.361651 0.959059 0.370499
0.358636 0.955954 0.370555
0.355622 0.952849 0.370612
0.352609 0.949746 0.370668
0.349595 0.946642 0.370724
0.346583 0.94354 0.37078
0.34357 0.940437 0.370836
0.340559 0.937336 0.370892
0.337547 0.934234 0.370949
0.334537 0.931133 0.371005
0.331527 0.928033 0.371061
0.328517 0.924934 0.371117
0.325507 0.921834 0.371173
0.322499 0.918736 0.371229
0.31949 0.915637 0.371285
0.316483 0.91254 0.371342
0.313475 0.909443 0.371398
0.310469 0.906346 0.371454
0.307462 0.90325 0.37151
0.304456 0.900154 0.371566
0.301451 0.897059 0.371622
0.298446 0.893964 0.371678
0.295442 0.89087 0.371734
0.292438 0.887776 0.37179
0.289435 0.884683 0.371846
0.286432 0.881591 0.371902
0.28343 0.878499 0.371958
0.280428 0.875407 0.372014
0.277426 0.872316 0.37207
0.274425 0.869225 0.372126
0.271425 0.866135 0.372182
0.268425 0.863046 0.372238
0.265556 0.859892 0.372253
0.263421 0.856371 0.372038
0.261285 0.852848 0.371823
0.259147 0.849323 0.371607
0.257008 0.845796 0.371392
0.254868 0.842266 0.371176
0.25827 0.835904 0.36921
0.252143 0.834401 0.370251
0.248161 0.831807 0.370616
0.244184 0.829215 0.37098
0.235459 0.829094 0.372853
0.232464 0.82601 0.372908
0.229471 0.822927 0.372964
0.226478 0.819845 0.37302
0.223485 0.816763 0.373076
0.220493 0.813681 0.373132
0.217502 0.8106 0.373187
0.214511 0.80752 0.373243
0.21152 0.80444 0.373299
0.20853 0.80136 0.373355
0.205541 0.798281 0.373411
0.202551 0.795203 0.373466
0.199563 0.792125 0.373522
0.196575 0.789048 0.373578
0.193587 0.785971 0.373633
0.1906 0.782894 0.373689
0.187613 0.779818 0.373745
0.184627 0.776743 0.373801
0.181641 0.773668 0.373856
0.178656 0.770593 0.373912
0.175672 0.767519 0.373968
0.172687 0.764446 0.374023
0.169704 0.761373 0.374079
0.16672 0.758301 0.374135
0.163738 0.755229 0.37419
0.160755 0.752157 0.374246
0.157773 0.749086 0.374301
0.154792 0.746016 0.374357
0.151811 0.742946 0.374413
0.148831 0.739877 0.374468
0.145851 0.736808 0.374524
0.142872 0.733739 0.374579
0.139893 0.730672 0.374635
0.136915 0.727604 0.37469
0.133937 0.724537 0.374746
0.130959 0.721471 0.374802
0.127982 0.718405 0.374857
0.125006 0.715339 0.374913
0.12203 0.712275 0.374968
0.119054 0.70921 0.375024
0.116079 0.706146 0.375079
0.113105 0.703083 0.375135
0.110131 0.70002 0.37519
0.107157 0.696958 0.375245
0.104185 0.693896 0.375301
0.101212 0.690834 0.375356
0.0982399 0.687773 0.375412
0.0952684 0.684713 0.375467
0.0922971 0.681653 0.375523
0.0893265 0.678594 0.375578
0.0863565 0.675535 0.375633
0.0833869 0.672476 0.375689
0.0804176 0.669419 0.375744
0.0774491 0.666361 0.3758
0.0744807 0.663304 0.375855
0.0715131 0.660248 0.37591
0.0685459 0.657192 0.375966
0.0655791 0.654136 0.376021
0.0626129 0.651082 0.376076
0.0596472 0.648027 0.376131
0.0566819 0.644973 0.376187
0.0537172 0.64192 0.376242
0.0507527 0.638867 0.376297
0.0477889 0.635814 0.376353
0.0448256 0.632763 0.376408
0.0418627 0.629711 0.376463
0.0389002 0.62666 0.376518
0.0359385 0.62361 0.376574
0.032977 0.62056 0.376629
0.0300161 0.61751 0.376684
0.0270555 0.614461 0.376739
0.0240955 0.611413 0.376795
0.0211361 0.608365 0.37685
0.018177 0.605318 0.376905
0.0152186 0.602271 0.37696
0.0122605 0.599224 0.377015
0.00930305 0.596178 0.37707
0.00634583 0.593133 0.377126
0.00338929 0.590088 0.377181
0.000433181 0.587043 0.377236
-0.00252246 0.583999 0.377291
-0.00547766 0.580956 0.377346
-0.00843238 0.577913 0.377401
-0.0113865 0.57487 0.377456
-0.0143403 0.571828 0.377511
-0.0172935 0.568787 0.377566
-0.0202462 0.565746 0.377622
-0.0231985 0.562705 0.377677
-0.0261501 0.559665 0.377732
-0.0291014 0.556626 0.377787
-0.0320523 0.553587 0.377842
-0.0350026 0.550548 0.377897
-0.0379526 0.54751 0.377952
-0.0409019 0.544472 0.378007
-0.0438508 0.541435 0.378062
-0.0467992 0.538399 0.378117
-0.0497472 0.535363 0.378172
-0.0526947 0.532327 0.378227
-0.0556418 0.529292 0.378282
-0.0585882 0.526258 0.378337
-0.0615342 0.523223 0.378392
-0.0644799 0.52019 0.378446
-0.067425 0.517157 0.378501
-0.0703696 0.514124 0.378556
-0.0733137 0.511092 0.378611
-0.0762572 0.50806 0.378666
-0.0792005 0.505029 0.378721
-0.0821431 0.501998 0.378776
-0.0850854 0.498968 0.378831
-0.0880271 0.495939 0.378886
-0.0909684 0.49291 0.37894
-0.0939092 0.489881 0.378995
-0.0968495 0.486853 0.37905
-0.0997894 0.483825 0.379105
-0.102729 0.480798 0.37916
-0.105668 0.477771 0.379215
-0.108606 0.474745 0.379269
-0.111544 0.471719 0.379324
-0.114481 0.468694 0.379379
-0.117418 0.465669 0.379434
-0.120355 0.462645 0.379489
-0.123291 0.459621 0.379543
-0.126226 0.456598 0.379598
-0.129161 0.453575 0.379653
-0.132096 0.450553 0.379708
-0.13503 0.447531 0.379762
-0.137964 0.44451 0.379817
-0.140897 0.441489 0.379872
-0.14383 0.438468 0.379926
-0.146762 0.435448 0.379981
-0.149693 0.432429 0.380036
-0.152625 0.42941 0.38009
-0.155555 0.426392 0.380145
-0.158486 0.423374 0.3802
-0.161416 0.420357 0.380254
-0.164345 0.41734 0.380309
-0.167274 0.414323 0.380364
-0.170202 0.411307 0.380418
-0.17313 0.408292 0.380473
-0.176058 0.405277 0.380527
-0.178985 0.402262 0.380582
-0.181911 0.399248 0.380637
-0.184837 0.396235 0.380691
-0.187763 0.393222 0.380746
-0.190688 0.390209 0.3808
-0.193612 0.387197 0.380855
-0.196537 0.384186 0.380909
-0.19946 0.381175 0.380964
-0.202383 0.378164 0.381018
-0.205306 0.375154 0.381073
-0.208228 0.372144 0.381127
-0.21115 0.369135 0.381182
-0.214071 0.366127 0.381236
-0.216992 0.363118 0.381291
-0.219913 0.360111 0.381345
-0.222833 0.357104 0.3814
-0.225752 0.354097 0.381454
-0.228671 0.351091 0.381509
-0.231589 0.348085 0.381563
-0.234507 0.34508 0.381618
-0.237425 0.342075 0.381672
-0.240342 0.339071 0.381726
-0.243258 0.336067 0.381781
-0.246174 0.333064 0.381835
-0.24909 0.330061 0.381889
-0.252005 0.327059 0.381944
-0.25492 0.324057 0.381998
-0.257834 0.321056 0.382052
-0.260748 0.318055 0.382107
-0.263661 0.315054 0.382161
-0.266574 0.312054 0.382216
-0.269486 0.309055 0.38227
-0.272398 0.306056 0.382324
-0.27531 0.303058 0.382378
-0.278221 0.30006 0.382433
-0.281131 0.297062 0.382487
-0.284041 0.294065 0.382541
-0.286951 0.291069 0.382596
-0.28986 0.288073 0.38265
-0.292768 0.285077 0.382704
-0.295676 0.282082 0.382758
-0.298584 0.279088 0.382813
-0.301491 0.276094 0.382867
-0.304398 0.2731 0.382921
-0.307304 0.270107 0.382975
-0.31021 0.267114 0.383029
-0.313115 0.264122 0.383084
-0.31602 0.261131 0.383138
-0.318924 0.258139 0.383192
-0.321828 0.255149 0.383246
-0.324732 0.252158 0.3833
-0.327635 0.249169 0.383354
-0.330537 0.24618 0.383409
-0.333439 0.243191 0.383463
-0.336341 0.240202 0.383517
-0.339242 0.237215 0.383571
-0.342143 0.234227 0.383625
-0.345043 0.231241 0.383679
-0.347942 0.228254 0.383733
-0.350841 0.225268 0.383787
-0.35374 0.222283 0.383841
-0.356639 0.219298 0.383895
-0.359536 0.216314 0.383949
-0.362434 0.21333 0.384003
-0.365331 0.210346 0.384057
-0.368227 0.207363 0.384111
-0.371123 0.204381 0.384165
-0.374019 0.201399 0.384219
-0.376913 0.198417 0.384273
-0.379808 0.195436 0.384327
-0.382702 0.192455 0.384381
-0.385596 0.189475 0.384435
-0.388489 0.186496 0.384489
-0.391382 0.183516 0.384543
-0.394274 0.180538 0.384597
-0.397166 0.17756 0.384651
-0.400057 0.174582 0.384705
-0.402948 0.171605 0.384759
-0.405838 0.168628 0.384813
-0.408728 0.165652 0.384867
-0.411617 0.162676 0.384921
-0.414506 0.159701 0.384974
-0.417395 0.156726 0.385028
-0.420283 0.153751 0.385082
-0.42317 0.150777 0.385136
-0.426057 0.147804 0.38519
-0.428944 0.144831 0.385244
-0.43183 0.141859 0.385298
-0.434716 0.138887 0.385351
-0.437601 0.135915 0.385405
-0.440486 0.132944 0.385459
-0.44337 0.129974 0.385513
-0.446254 0.127004 0.385567
-0.449138 0.124034 0.38562
-0.45202 0.121065 0.385674
-0.454903 0.118096 0.385728
-0.457785 0.115128 0.385782
-0.460666 0.11216 0.385835
-0.463547 0.109193 0.385889
-0.466428 0.106227 0.385943
-0.469308 0.10326 0.385997
-0.472188 0.100295 0.38605
-0.475067 0.0973293 0.386104
-0.477946 0.0943645 0.386158
-0.480824 0.0914001 0.386211
-0.483702 0.0884363 0.386265
-0.486579 0.0854729 0.386319
-0.489456 0.0825101 0.386372
-0.492333 0.0795477 0.386426
-0.495209 0.0765857 0.38648
-0.498084 0.0736242 0.386533
-0.500959 0.0706633 0.386587
-0.503834 0.0677027 0.38664
-0.506708 0.0647427 0.386694
-0.509582 0.061783 0.386748
-0.512455 0.0588239 0.386801
-0.515328 0.0558654 0.386855
-0.5182 0.0529071 0.386908
-0.521072 0.0499496 0.386962
-0.523943 0.0469923 0.387016
-0.526814 0.0440356 0.387069
-0.529685 0.0410793 0.387123
-0.532555 0.0381236 0.387176
-0.535424 0.0351682 0.38723
-0.538293 0.0322134 0.387283
-0.541162 0.029259 0.387337
-0.54403 0.0263052 0.38739
-0.546898 0.0233517 0.387444
-0.549765 0.0203988 0.387497
-0.552634 0.0174491 0.387552
-0.555503 0.0145007 0.387606
-0.558371 0.0115529 0.387661
-0.561239 0.00860558 0.387716
-0.564106 0.00565876 0.38777
-0.566973 0.00271222 0.387825
-0.56984 -0.000233579 0.38788
-0.572706 -0.00317908 0.387934
-0.575572 -0.0061239 0.387989
-0.578437 -0.00906859 0.388044
-0.581301 -0.0120125 0.388098
-0.584166 -0.014956 0.388153
-0.587029 -0.017899 0.388208
-0.589892 -0.0208416 0.388262
-0.592755 -0.0237836 0.388317
-0.595618 -0.0267252 0.388371
-0.598479 -0.0296663 0.388426
-0.601341 -0.032607 0.388481
-0.604202 -0.0355471 0.388535
-0.607062 -0.0384867 0.38859
-0.609922 -0.041426 0.388644
-0.612782 -0.0443646 0.388699
-0.61564 -0.0473029 0.388753
-0.618499 -0.0502405 0.388808
-0.621357 -0.0531779 0.388862
-0.624215 -0.0561145 0.388917
-0.627072 -0.0590507 0.388971
-0.629929 -0.0619867 0.389026
-0.632785 -0.0649219 0.38908
-0.635641 -0.0678569 0.389135
-0.638496 -0.0707911 0.389189
-0.641351 -0.073725 0.389244
-0.644205 -0.0766584 0.389298
-0.647059 -0.0795914 0.389353
-0.649912 -0.0825237 0.389407
-0.652765 -0.0854558 0.389461
-0.655618 -0.0883872 0.389516
-0.65847 -0.0913181 0.38957
-0.661321 -0.0942487 0.389625
-0.664172 -0.0971788 0.389679
-0.667023 -0.100108 0.389733
-0.669873 -0.103037 0.389788
-0.672723 -0.105966 0.389842
-0.675572 -0.108894 0.389896
-0.678421 -0.111822 0.389951
-0.681269 -0.114749 0.390005
-0.684117 -0.117676 0.390059
-0.686964 -0.120602 0.390114
-0.689811 -0.123528 0.390168
-0.692658 -0.126453 0.390222
-0.695504 -0.129378 0.390277
-0.698349 -0.132302 0.390331
-0.701194 -0.135226 0.390385
-0.704018 -0.138184 0.390428
-0.706826 -0.14117 0.390462
-0.709641 -0.144142 0.390501
-0.712482 -0.147068 0.390554
-0.715323 -0.149994 0.390607
-0.718163 -0.152919 0.39066
-0.721003 -0.155844 0.390713
-0.720214 -0.165185 0.38874
-0.722551 -0.169023 0.388507
-0.72489 -0.172865 0.388275
-0.727313 -0.176561 0.388088
-0.732829 -0.174707 0.389644
-0.736116 -0.176834 0.389948
-0.7394 -0.17896 0.390252
-0.74268 -0.181084 0.390555
-0.745958 -0.183206 0.390858
-0.749233 -0.185325 0.39116
-0.752171 -0.188057 0.391272
-0.755005 -0.190976 0.391325
-0.757839 -0.193895 0.391378
-0.760672 -0.196813 0.391431
-0.763506 -0.199731 0.391483
-0.766338 -0.202648 0.391536
