//X Y Z R G B
1128
0.94979465 0.50065094 2.28385305 56 56 56
0.95383930 0.50061113 2.28367138 56 57 56
0.95788348 0.50057137 2.28348994 56 56 55
0.96195149 0.50054437 2.28336668 56 56 56
0.96637136 0.50069988 2.28407621 55 55 55
0.97084057 0.50087953 2.28489566 55 55 55
0.97531289 0.50105923 2.28571558 54 54 54
0.97978836 0.50123912 2.28653598 54 54 54
-0.79635918 0.52307773 2.36667991 118 118 118
-0.79165149 0.52278870 2.36537218 53 53 53
-0.78694898 0.52249998 2.36406589 55 55 55
-0.78225160 0.52221155 2.36276078 53 53 53
-0.77760011 0.52195078 2.36158085 55 55 55
-0.77321100 0.52186418 2.36118913 53 53 53
-0.76888770 0.52182126 2.36099505 56 56 56
-0.76456517 0.52177846 2.36080122 54 54 54
-0.76024324 0.52173555 2.36060715 56 56 56
-0.75592202 0.52169263 2.36041307 54 54 54
-0.75160158 0.52164984 2.36021924 56 56 55
-0.74728185 0.52160698 2.36002541 54 54 54
-0.74296278 0.52156413 2.35983157 54 54 54
-0.73864442 0.52152127 2.35963774 55 55 55
-0.73432678 0.52147847 2.35944390 55 55 55
-0.73000991 0.52143568 2.35925031 58 58 58
-0.72569370 0.52139282 2.35905647 59 59 59
-0.72137821 0.52135003 2.35886288 57 57 57
-0.71706337 0.52130717 2.35866904 56 56 56
-0.71274930 0.52126443 2.35847545 56 56 56
-0.70843589 0.52122164 2.35828185 56 56 56
-0.70412326 0.52117884 2.35808825 55 55 55
-0.69981134 0.52113611 2.35789490 57 57 57
-0.69550002 0.52109331 2.35770130 57 57 57
-0.69118947 0.52105051 2.35750771 57 57 57
-0.68687963 0.52100778 2.35731435 57 57 57
-0.68257052 0.52096504 2.35712099 55 55 55
-0.67826211 0.52092230 2.35692763 53 53 52
-0.67395437 0.52087957 2.35673428 53 53 52
-0.66964740 0.52083683 2.35654092 55 55 55
-0.66534102 0.52079409 2.35634756 54 54 54
-0.66103548 0.52075142 2.35615444 56 56 56
-0.65673053 0.52070868 2.35596108 56 56 56
-0.65242636 0.52066600 2.35576797 57 57 57
-0.64812291 0.52062333 2.35557485 55 55 55
-0.64382017 0.52058065 2.35538173 56 56 56
-0.63951808 0.52053797 2.35518861 54 54 54
-0.63525450 0.52052623 2.35513568 53 53 53
-0.63120431 0.52069038 2.35587835 54 54 54
-0.62715155 0.52085465 2.35662150 54 54 54
-0.62309611 0.52101898 2.35736489 52 52 51
-0.61903822 0.52118337 2.35810876 52 52 51
-0.61497784 0.52134800 2.35885358 52 52 52
-0.61247849 0.52284753 2.36563826 41 41 41
-0.60845804 0.52306038 2.36660147 41 41 40
-0.60386556 0.52278113 2.36533785 47 47 47
-0.59832311 0.52166963 2.36030889 50 50 50
-0.59224182 0.52006900 2.35306668 55 55 55
-0.58794814 0.52002633 2.35287380 55 55 54
-0.58365524 0.51998377 2.35268116 56 56 56
-0.57936305 0.51994121 2.35248852 57 57 57
-0.57507151 0.51989859 2.35229588 56 56 56
-0.57078069 0.51985604 2.35210323 57 57 57
-0.56649065 0.51981354 2.35191083 55 55 55
-0.56220120 0.51977092 2.35171819 56 56 56
-0.55791253 0.51972842 2.35152578 56 56 55
-0.55362457 0.51968586 2.35133338 55 55 55
-0.54933727 0.51964337 2.35114098 55 55 55
-0.54505068 0.51960081 2.35094857 56 56 56
-0.54076475 0.51955831 2.35075617 56 56 56
-0.53647959 0.51951581 2.35056376 57 57 57
-0.53219503 0.51947325 2.35037136 56 56 56
-0.52791131 0.51943082 2.35017920 55 55 55
-0.52362823 0.51938832 2.34998703 56 56 56
-0.51934582 0.51934582 2.34979463 57 57 57
-0.51506412 0.51930332 2.34960246 56 56 56
-0.51078314 0.51926082 2.34941030 56 56 56
-0.50650287 0.51921844 2.34921837 56 56 56
-0.50222325 0.51917595 2.34902620 54 54 54
-0.49794436 0.51913351 2.34883404 59 59 59
-0.49366620 0.51909107 2.34864211 58 58 58
-0.48938873 0.51904863 2.34845018 56 56 56
-0.48511195 0.51900625 2.34825826 56 56 56
-0.48083580 0.51896375 2.34806609 56 56 56
-0.47656047 0.51892138 2.34787440 56 56 56
-0.47228575 0.51887900 2.34768248 57 57 57
-0.46801174 0.51883656 2.34749055 53 53 53
-0.46373847 0.51879418 2.34729886 51 51 51
-0.45946586 0.51875174 2.34710693 53 53 53
-0.45519397 0.51870942 2.34691525 54 54 54
-0.45092276 0.51866704 2.34672356 54 54 54
-0.44665226 0.51862466 2.34653187 53 53 53
-0.44238245 0.51858228 2.34634018 54 54 54
-0.43811333 0.51853991 2.34614849 54 54 54
-0.43384495 0.51849765 2.34595704 52 52 52
-0.42957720 0.51845527 2.34576535 53 53 53
-0.42531019 0.51841295 2.34557390 56 56 56
-0.42104390 0.51837063 2.34538245 54 55 54
-0.41677827 0.51832831 2.34519100 57 57 57
-0.41251335 0.51828599 2.34499955 54 54 54
-0.40824911 0.51824367 2.34480810 53 53 53
-0.40398559 0.51820141 2.34461689 53 53 53
-0.39972275 0.51815909 2.34442544 58 58 58
-0.39546061 0.51811683 2.34423423 56 56 56
-0.39119914 0.51807451 2.34404278 53 53 53
-0.38693839 0.51803225 2.34385157 54 54 54
-0.38267833 0.51798999 2.34366035 54 54 54
-0.37841898 0.51794773 2.34346914 58 58 57
-0.37416032 0.51790553 2.34327817 58 58 58
-0.36990234 0.51786327 2.34308696 56 56 56
-0.36564505 0.51782101 2.34289575 56 56 56
-0.36138847 0.51777881 2.34270477 57 57 57
-0.35713258 0.51773661 2.34251380 58 58 58
-0.35287741 0.51769441 2.34232283 58 58 58
-0.34862289 0.51765221 2.34213185 58 58 58
-0.34436908 0.51760995 2.34194088 56 56 56
-0.34011596 0.51756775 2.34174991 57 57 56
-0.33586356 0.51752561 2.34155917 57 57 57
-0.33161181 0.51748341 2.34136820 58 58 57
-0.32736078 0.51744127 2.34117746 56 56 55
-0.32311046 0.51739907 2.34098673 56 56 56
-0.31886080 0.51735693 2.34079599 55 55 55
-0.31461185 0.51731479 2.34060526 56 56 56
-0.31036356 0.51727265 2.34041452 55 55 55
-0.30611598 0.51723045 2.34022379 56 56 56
-0.30186912 0.51718837 2.34003329 56 56 56
-0.29762292 0.51714623 2.33984256 55 55 55
-0.29337743 0.51710409 2.33965206 55 55 54
-0.28913262 0.51706201 2.33946157 56 56 55
-0.28488851 0.51701993 2.33927107 57 57 57
-0.28064510 0.51697779 2.33908057 56 56 56
-0.27640235 0.51693571 2.33889008 56 56 56
-0.27216032 0.51689363 2.33869982 56 56 56
-0.26791897 0.51685154 2.33850932 54 54 54
-0.26367831 0.51680946 2.33831906 57 57 56
-0.25943834 0.51676744 2.33812881 56 56 56
-0.25519907 0.51672536 2.33793855 55 55 55
-0.25096047 0.51668334 2.33774829 56 56 56
-0.24672259 0.51664132 2.33755827 56 56 56
-0.24248539 0.51659930 2.33736801 56 56 56
-0.23824885 0.51655722 2.33717775 54 54 54
-0.23401304 0.51651525 2.33698773 53 53 53
-0.22977789 0.51647323 2.33679771 54 54 54
-0.22554342 0.51643121 2.33660746 57 57 57
-0.22130966 0.51638919 2.33641744 58 58 57
-0.21707658 0.51634723 2.33622742 56 56 56
-0.21284421 0.51630527 2.33603764 55 55 55
-0.20861250 0.51626325 2.33584762 55 55 55
-0.20438148 0.51622128 2.33565760 58 58 58
-0.20015115 0.51617926 2.33546758 55 55 55
-0.19592151 0.51613730 2.33527780 54 54 54
-0.19169256 0.51609540 2.33508801 55 55 55
-0.18746431 0.51605344 2.33489823 55 55 55
-0.18323673 0.51601148 2.33470845 53 53 53
-0.17900984 0.51596951 2.33451867 55 55 55
-0.17478365 0.51592767 2.33432913 55 55 55
-0.17055812 0.51588571 2.33413935 56 56 56
-0.16633330 0.51584381 2.33394980 56 56 56
-0.16210915 0.51580185 2.33376002 56 56 56
-0.15788570 0.51575994 2.33357048 56 56 56
-0.15366293 0.51571810 2.33338094 54 54 54
-0.14944085 0.51567620 2.33319139 55 55 55
-0.14521948 0.51563436 2.33300209 57 57 57
-0.14099875 0.51559246 2.33281255 56 56 56
-0.13677874 0.51555061 2.33262324 57 57 57
-0.13255939 0.51550871 2.33243370 56 56 56
-0.12834074 0.51546687 2.33224440 55 55 55
-0.12412277 0.51542503 2.33205509 51 51 51
-0.11990548 0.51538318 2.33186579 51 51 51
-0.11568888 0.51534134 2.33167648 54 54 54
-0.11147297 0.51529956 2.33148742 55 55 55
-0.10725773 0.51525772 2.33129811 56 56 56
-0.10304319 0.51521593 2.33110905 56 56 56
-0.09882932 0.51517409 2.33091974 55 55 55
-0.09461614 0.51513231 2.33073068 55 55 55
-0.09040365 0.51509053 2.33054161 54 54 54
-0.08619183 0.51504874 2.33035254 56 56 56
-0.08198070 0.51500696 2.33016348 58 58 57
-0.07777026 0.51496524 2.32997465 54 54 54
-0.07356049 0.51492345 2.32978559 55 55 55
-0.06935141 0.51488173 2.32959676 55 55 55
-0.06514301 0.51483995 2.32940769 56 56 56
-0.06093530 0.51479816 2.32921886 54 54 54
-0.05672826 0.51475644 2.32903004 53 53 53
-0.05252191 0.51471472 2.32884121 57 57 57
-0.04831624 0.51467305 2.32865262 59 59 59
-0.04411126 0.51463133 2.32846403 60 60 60
-0.03990695 0.51458961 2.32827520 58 58 58
-0.03570333 0.51454794 2.32808661 53 53 53
-0.03150038 0.51450622 2.32789779 52 52 52
-0.02729812 0.51446450 2.32770920 58 58 58
-0.02309654 0.51442283 2.32752061 56 56 56
-0.01889564 0.51438117 2.32733202 55 55 55
-0.01469542 0.51433951 2.32714367 56 56 56
-0.01049587 0.51429784 2.32695508 54 54 54
-0.00629702 0.51425624 2.32676673 56 56 56
-0.00209883 0.51421452 2.32657814 56 56 56
0.00209866 0.51417291 2.32638979 58 58 58
0.00629548 0.51413131 2.32620144 57 57 57
0.01049163 0.51408964 2.32601309 54 54 54
0.01468709 0.51404804 2.32582474 55 55 55
0.01888187 0.51400638 2.32563639 57 57 57
0.02307597 0.51396483 2.32544827 57 57 56
0.02726939 0.51392317 2.32525992 56 56 56
0.03146214 0.51388162 2.32507181 58 58 58
0.03565421 0.51384002 2.32488370 57 58 57
0.03984560 0.51379848 2.32469559 57 57 57
0.04403631 0.51375687 2.32450747 56 56 56
0.04822633 0.51371533 2.32431936 54 54 54
0.05241569 0.51367372 2.32413125 57 57 57
0.05660437 0.51363224 2.32394338 57 57 57
0.06079236 0.51359063 2.32375526 55 55 54
0.06497969 0.51354909 2.32356739 54 54 54
0.06916633 0.51350760 2.32337952 55 55 55
0.07335229 0.51346606 2.32319164 57 57 57
0.07753758 0.51342452 2.32300377 58 58 58
0.08172219 0.51338303 2.32281590 57 57 57
0.08590613 0.51334149 2.32262802 55 55 54
0.09008940 0.51330000 2.32244039 53 53 53
0.09427198 0.51325858 2.32225275 56 56 56
0.09845389 0.51321709 2.32206511 54 54 54
0.10263512 0.51317561 2.32187748 54 54 54
0.10681567 0.51313406 2.32168961 56 56 55
0.11099556 0.51309270 2.32150221 56 56 56
0.11517476 0.51305121 2.32131457 54 54 54
0.11935329 0.51300973 2.32112694 54 54 54
0.12353115 0.51296830 2.32093954 53 53 53
0.12770832 0.51292682 2.32075191 54 54 54
0.13188483 0.51288545 2.32056451 56 56 56
0.13606066 0.51284403 2.32037711 58 58 58
0.14023581 0.51280260 2.32018971 58 58 58
0.14441028 0.51276118 2.32000232 54 54 54
0.14858410 0.51271975 2.31981492 55 55 55
0.15275721 0.51267833 2.31962752 54 54 54
0.15692969 0.51263696 2.31944036 54 54 54
0.16110148 0.51259559 2.31925321 56 56 56
0.16527258 0.51255417 2.31906581 55 55 55
0.16944301 0.51251280 2.31887865 56 56 56
0.17361277 0.51247144 2.31869149 54 54 54
0.17778187 0.51243007 2.31850433 52 52 52
0.18195030 0.51238877 2.31831741 54 54 54
0.18611804 0.51234740 2.31813025 56 56 56
0.19028510 0.51230603 2.31794310 56 56 56
0.19445151 0.51226473 2.31775618 55 55 55
0.19861725 0.51222342 2.31756926 54 54 54
0.20278230 0.51218212 2.31738234 54 54 54
0.20694669 0.51214081 2.31719542 54 54 54
0.21111040 0.51209950 2.31700850 55 55 55
0.21527344 0.51205820 2.31682158 56 56 56
0.21943580 0.51201683 2.31663465 56 56 56
0.22359751 0.51197559 2.31644797 57 57 57
0.22775854 0.51193434 2.31626129 57 57 57
0.23191889 0.51189303 2.31607437 56 56 56
0.23607858 0.51185179 2.31588769 57 57 57
0.24023758 0.51181048 2.31570101 57 57 57
0.24439593 0.51176924 2.31551433 56 56 56
0.24855362 0.51172805 2.31532788 55 55 55
0.25271061 0.51168680 2.31514120 56 56 56
0.25686696 0.51164556 2.31495476 56 56 56
0.26102260 0.51160431 2.31476808 56 56 56
0.26517761 0.51156312 2.31458163 55 55 55
0.26933193 0.51152188 2.31439519 57 57 57
0.27348560 0.51148069 2.31420875 56 56 56
0.27763858 0.51143950 2.31402230 56 56 56
0.28179088 0.51139826 2.31383586 56 56 56
0.28594255 0.51135713 2.31364965 56 56 56
0.29009351 0.51131594 2.31346321 55 55 55
0.29424384 0.51127476 2.31327701 55 55 55
0.29839349 0.51123363 2.31309080 54 54 54
0.30254248 0.51119244 2.31290460 54 54 54
0.30669078 0.51115131 2.31271839 55 55 55
0.31083840 0.51111013 2.31253219 56 56 56
0.31498536 0.51106900 2.31234598 56 56 56
0.31913167 0.51102781 2.31215978 56 56 56
0.32327732 0.51098675 2.31197381 54 54 54
0.32742229 0.51094562 2.31178784 52 52 52
0.33156660 0.51090455 2.31160188 55 55 55
0.33571026 0.51086342 2.31141591 57 57 57
0.33985323 0.51082230 2.31122994 57 57 56
0.34399551 0.51078123 2.31104398 56 56 55
0.34813717 0.51074016 2.31085825 55 55 55
0.35227814 0.51069909 2.31067228 54 54 54
0.35641843 0.51065797 2.31048632 55 55 55
0.36055806 0.51061690 2.31030059 58 58 57
0.36469704 0.51057589 2.31011486 56 56 56
0.36883536 0.51053482 2.30992913 57 57 57
0.37297300 0.51049376 2.30974340 57 57 57
0.37710997 0.51045275 2.30955768 55 55 55
0.38124627 0.51041168 2.30937195 54 54 54
0.38538185 0.51037055 2.30918598 55 55 55
0.38951609 0.51032859 2.30899596 56 56 56
0.39364970 0.51028663 2.30880618 57 57 57
0.39778253 0.51024461 2.30861616 57 57 57
0.40191478 0.51020271 2.30842638 54 54 54
0.40604627 0.51016068 2.30823636 56 56 56
0.41017714 0.51011878 2.30804682 56 56 56
0.41430727 0.51007682 2.30785680 56 56 56
0.41843680 0.51003492 2.30766726 54 54 54
0.42256561 0.50999296 2.30747747 58 58 58
0.42669371 0.50995100 2.30728769 55 55 55
0.43082118 0.50990909 2.30709815 55 55 54
0.43494791 0.50986719 2.30690837 56 56 55
0.43907401 0.50982529 2.30671883 55 55 55
0.44319943 0.50978339 2.30652928 56 56 56
0.44732419 0.50974149 2.30633974 55 55 55
0.45144823 0.50969958 2.30615020 54 54 54
0.45557165 0.50965774 2.30596089 56 56 56
0.45969433 0.50961590 2.30577135 56 56 56
0.46381637 0.50957406 2.30558205 56 56 56
0.46793768 0.50953215 2.30539250 57 57 57
0.47205833 0.50949025 2.30520296 58 58 58
0.47617835 0.50944847 2.30501390 58 58 58
0.48029763 0.50940657 2.30482435 59 59 59
0.48441631 0.50936478 2.30463529 58 58 58
0.48853424 0.50932294 2.30444598 57 57 57
0.49265158 0.50928116 2.30425692 58 58 58
0.49676815 0.50923932 2.30406761 57 57 57
0.50088412 0.50919753 2.30387855 53 53 53
0.50499940 0.50915575 2.30368948 54 54 54
0.50911391 0.50911391 2.30350018 57 57 57
0.51322788 0.50907218 2.30331135 53 53 53
0.51734108 0.50903040 2.30312228 53 53 53
0.52145368 0.50898868 2.30293345 56 56 56
0.52556556 0.50894684 2.30274439 57 57 56
0.52967680 0.50890511 2.30255556 55 55 55
0.53378725 0.50886333 2.30236650 56 56 56
0.53789711 0.50882161 2.30217767 56 56 56
0.54200631 0.50877988 2.30198884 54 54 54
0.54611486 0.50873822 2.30180025 55 55 55
0.55022269 0.50869644 2.30161142 57 57 57
0.55432987 0.50865471 2.30142260 58 58 58
0.55843633 0.50861305 2.30123401 58 58 58
0.56254214 0.50857133 2.30104518 57 57 57
0.56664729 0.50852960 2.30085659 54 54 54
0.57075179 0.50848794 2.30066800 54 54 54
0.57485557 0.50844628 2.30047941 55 55 55
0.57895869 0.50840461 2.30029082 56 56 56
0.58306116 0.50836295 2.30010247 55 55 55
0.58716291 0.50832129 2.29991388 54 54 54
0.59126407 0.50827962 2.29972553 54 54 54
0.59536445 0.50823796 2.29953694 58 58 58
0.59946424 0.50819635 2.29934859 55 55 55
0.60356337 0.50815469 2.29916024 56 56 56
0.60766178 0.50811309 2.29897189 54 54 54
0.61175948 0.50807142 2.29878354 56 56 56
0.61585653 0.50802982 2.29859519 56 56 56
0.61995298 0.50798821 2.29840708 55 55 55
0.62404877 0.50794667 2.29821897 55 55 55
0.62814385 0.50790507 2.29803085 55 55 55
0.63223821 0.50786346 2.29784250 55 55 55
0.63633198 0.50782192 2.29765463 56 56 56
0.64042497 0.50778031 2.29746628 55 55 55
0.64451730 0.50773871 2.29727817 55 55 55
0.64860910 0.50769722 2.29709029 55 55 55
0.65270013 0.50765562 2.29690218 55 55 55
0.65679049 0.50761414 2.29671431 54 54 54
0.66088021 0.50757259 2.29652643 55 55 55
0.66496927 0.50753105 2.29633856 56 56 56
0.66905767 0.50748956 2.29615068 56 56 55
0.67314535 0.50744802 2.29596281 56 56 56
0.67723233 0.50740647 2.29577494 57 57 57
0.68131876 0.50736505 2.29558730 58 58 58
0.68540442 0.50732350 2.29539943 56 56 56
0.68948942 0.50728202 2.29521179 54 54 54
0.69357383 0.50724053 2.29502416 52 52 52
0.69765747 0.50719905 2.29483628 58 58 58
0.70174056 0.50715762 2.29464889 56 56 56
0.70582289 0.50711614 2.29446125 56 56 56
0.70990455 0.50707465 2.29427361 56 56 56
0.71398562 0.50703323 2.29408622 56 56 56
0.71806592 0.50699180 2.29389858 56 56 56
0.72214562 0.50695038 2.29371119 54 54 54
0.72622466 0.50690895 2.29352379 52 52 52
0.73030299 0.50686753 2.29333639 54 54 54
0.73438060 0.50682604 2.29314876 54 54 54
0.73845768 0.50678468 2.29296160 54 54 54
0.74253404 0.50674325 2.29277420 58 58 58
0.74660975 0.50670189 2.29258704 58 58 57
0.75068474 0.50666052 2.29239964 54 54 54
0.75477380 0.50662899 2.29225707 53 53 53
0.75887036 0.50660282 2.29213881 55 55 55
0.76296645 0.50657666 2.29202032 57 57 57
0.76706231 0.50655055 2.29190230 56 56 56
0.77114195 0.50651419 2.29173756 56 56 56
0.77521497 0.50647378 2.29155493 56 56 56
0.77928728 0.50643337 2.29137206 55 55 55
0.78720415 0.50887871 2.30243587 46 46 45
0.79163510 0.50905669 2.30324125 43 43 43
0.79750359 0.51015240 2.30819893 36 36 36
0.79898816 0.50844699 2.30048275 48 48 48
0.80126393 0.50726008 2.29511261 51 51 51
0.80503684 0.50702834 2.29406404 49 49 49
0.80880642 0.50679690 2.29301667 52 52 52
0.81257248 0.50656551 2.29197001 53 53 53
0.81633520 0.50633448 2.29092455 53 53 53
0.82009435 0.50610358 2.28987980 54 54 54
0.82408744 0.50601864 2.28949547 54 54 54
0.82815218 0.50597829 2.28931284 55 55 55
0.83221632 0.50593793 2.28913045 54 54 54
0.83627975 0.50589764 2.28894806 57 57 57
0.84034258 0.50585735 2.28876567 56 56 56
0.84440482 0.50581706 2.28858352 54 54 54
0.84846634 0.50577676 2.28840113 54 54 54
0.85252714 0.50573647 2.28821874 55 55 55
0.85658741 0.50569618 2.28803658 55 55 55
0.86064702 0.50565594 2.28785443 56 56 55
0.86470598 0.50561565 2.28767228 58 58 58
0.86876428 0.50557542 2.28749013 57 57 57
0.87282193 0.50553513 2.28730798 56 56 56
0.87687892 0.50549489 2.28712583 56 56 56
0.88093519 0.50545466 2.28694367 56 56 56
0.88499099 0.50541443 2.28676176 54 54 54
0.88904595 0.50537419 2.28657961 56 56 56
0.89310044 0.50533396 2.28639770 56 56 56
0.89715421 0.50529373 2.28621578 55 55 55
0.90120733 0.50525355 2.28603387 55 55 55
0.90525985 0.50521332 2.28585196 56 56 56
0.90931165 0.50517315 2.28567004 56 56 56
0.91336280 0.50513291 2.28548813 58 58 58
0.91741341 0.50509280 2.28530645 56 56 56
0.92146325 0.50505257 2.28512454 54 54 54
0.92551255 0.50501239 2.28494287 56 56 56
0.92956120 0.50497228 2.28476119 56 56 56
0.93360919 0.50493211 2.28457952 58 58 58
0.93765646 0.50489193 2.28439784 58 58 58
0.94170314 0.50485182 2.28421617 55 55 55
0.94574916 0.50481164 2.28403449 54 54 54
0.94979453 0.50477147 2.28385282 56 56 56
0.95383930 0.50473142 2.28367138 54 54 54
0.95788336 0.50469124 2.28348970 57 57 57
0.96195149 0.50466406 2.28336668 56 56 56
0.96636677 0.50481844 2.28406525 56 56 56
0.97083580 0.50499952 2.28488445 54 54 54
0.97530812 0.50518072 2.28570437 55 55 55
0.97978354 0.50536203 2.28652477 55 55 55
-0.79635513 0.52734512 2.36666799 118 118 118
-0.79164749 0.52705371 2.36536026 54 54 54
-0.78694499 0.52676266 2.36405396 57 57 57
-0.78224772 0.52647191 2.36274910 53 53 53
-0.77760011 0.52621156 2.36158085 56 56 56
-0.77321100 0.52612430 2.36118913 56 56 56
-0.76888770 0.52608103 2.36099505 54 54 54
-0.76456517 0.52603787 2.36080122 54 54 54
-0.76024324 0.52599460 2.36060715 54 54 54
-0.75592202 0.52595139 2.36041307 55 55 55
-0.75160158 0.52590817 2.36021924 53 53 53
-0.74728185 0.52586502 2.36002541 54 54 53
-0.74296278 0.52582181 2.35983157 54 54 54
-0.73864442 0.52577859 2.35963774 54 54 54
-0.73432678 0.52573544 2.35944390 56 56 56
-0.73000985 0.52569222 2.35925007 58 58 58
-0.72569358 0.52564901 2.35905623 58 58 58
-0.72137815 0.52560592 2.35886264 57 57 57
-0.71706337 0.52556276 2.35866904 56 56 56
-0.71274930 0.52551961 2.35847545 54 54 54
-0.70843589 0.52547652 2.35828185 56 56 55
-0.70412326 0.52543336 2.35808825 55 55 54
-0.69981128 0.52539021 2.35789466 54 54 54
-0.69549996 0.52534705 2.35770106 54 54 54
-0.69118947 0.52530402 2.35750771 57 57 57
-0.68687958 0.52526087 2.35731411 54 54 54
-0.68257046 0.52521777 2.35712075 56 56 56
-0.67826205 0.52517468 2.35692739 55 55 54
-0.67395431 0.52513158 2.35673404 53 53 53
-0.66964728 0.52508849 2.35654068 54 54 54
-0.66534096 0.52504545 2.35634732 52 52 52
-0.66103542 0.52500242 2.35615420 57 57 56
-0.65673047 0.52495933 2.35596085 58 58 58
-0.65242630 0.52491629 2.35576773 56 56 56
-0.64812285 0.52487326 2.35557461 56 56 56
-0.64382005 0.52483022 2.35538149 57 57 57
-0.63951802 0.52478719 2.35518837 56 56 56
-0.63525450 0.52477545 2.35513568 54 54 54
-0.63120431 0.52494091 2.35587835 54 54 54
-0.62715155 0.52510655 2.35662150 55 55 55
-0.62309611 0.52527219 2.35736489 53 53 53
-0.61903822 0.52543789 2.35810876 50 50 50
-0.61497784 0.52560389 2.35885358 51 51 51
-0.61247849 0.52711564 2.36563826 41 41 41
-0.60842240 0.52729940 2.36646295 41 41 40
-0.60383022 0.52701789 2.36519957 48 48 48
-0.59832519 0.52592999 2.36031699 50 50 50
-0.59224182 0.52431446 2.35306668 54 54 54
-0.58794814 0.52427143 2.35287380 53 53 52
-0.58365524 0.52422851 2.35268116 54 54 54
-0.57936305 0.52418560 2.35248852 55 55 55
-0.57507151 0.52414268 2.35229588 56 56 56
-0.57078069 0.52409977 2.35210323 56 56 56
-0.56649065 0.52405691 2.35191083 52 52 52
-0.56220120 0.52401394 2.35171819 57 57 57
-0.55791253 0.52397108 2.35152578 56 56 56
-0.55362457 0.52392823 2.35133338 57 57 57
-0.54933727 0.52388537 2.35114098 55 55 55
-0.54505068 0.52384245 2.35094857 55 55 55
-0.54076475 0.52379960 2.35075617 54 54 54
-0.53647959 0.52375674 2.35056376 56 56 56
-0.53219503 0.52371389 2.35037136 56 56 56
-0.52791131 0.52367103 2.35017920 57 57 57
-0.52362823 0.52362823 2.34998703 56 56 56
-0.51934582 0.52358538 2.34979463 58 58 58
-0.51506412 0.52354252 2.34960246 58 58 58
-0.51078314 0.52349973 2.34941030 56 56 56
-0.50650287 0.52345693 2.34921837 55 55 55
-0.50222325 0.52341413 2.34902620 53 53 53
-0.49794436 0.52337134 2.34883404 54 54 54
-0.49366620 0.52332854 2.34864211 58 58 58
-0.48938873 0.52328581 2.34845018 56 56 56
-0.48511195 0.52324301 2.34825826 58 58 58
-0.48083580 0.52320021 2.34806609 58 58 58
-0.47656047 0.52315748 2.34787440 55 55 55
-0.47228575 0.52311474 2.34768248 56 56 56
-0.46801174 0.52307194 2.34749055 57 57 57
-0.46373847 0.52302927 2.34729886 56 56 55
-0.45946586 0.52298647 2.34710693 56 56 56
-0.45519397 0.52294374 2.34691525 55 55 55
-0.45092276 0.52290106 2.34672356 56 56 56
-0.44665226 0.52285832 2.34653187 56 56 56
-0.44238245 0.52281564 2.34634018 54 54 54
-0.43811333 0.52277291 2.34614849 54 54 54
-0.43384495 0.52273023 2.34595704 54 54 54
-0.42957720 0.52268755 2.34576535 53 53 53
-0.42531019 0.52264488 2.34557390 55 55 55
-0.42104390 0.52260220 2.34538245 52 52 52
-0.41677827 0.52255958 2.34519100 52 52 52
-0.41251335 0.52251691 2.34499955 54 54 54
-0.40824911 0.52247423 2.34480810 57 57 57
-0.40398559 0.52243161 2.34461689 56 56 56
-0.39972275 0.52238899 2.34442544 55 55 55
-0.39546061 0.52234638 2.34423423 56 56 56
-0.39119914 0.52230370 2.34404278 56 56 56
-0.38693839 0.52226108 2.34385157 55 55 55
-0.38267833 0.52221853 2.34366035 54 54 54
-0.37841898 0.52217591 2.34346914 56 56 56
-0.37416032 0.52213335 2.34327817 56 56 56
-0.36990234 0.52209073 2.34308696 53 53 53
-0.36564505 0.52204812 2.34289575 54 54 54
-0.36138847 0.52200556 2.34270477 57 58 57
-0.35713258 0.52196300 2.34251380 60 61 60
-0.35287741 0.52192044 2.34232283 60 60 59
-0.34862289 0.52187794 2.34213185 58 58 57
-0.34436908 0.52183539 2.34194088 54 54 54
-0.34011596 0.52179283 2.34174991 54 54 54
-0.33586356 0.52175033 2.34155917 55 55 55
-0.33161181 0.52170777 2.34136820 55 55 55
-0.32736078 0.52166528 2.34117746 55 55 55
-0.32311046 0.52162278 2.34098673 54 54 54
-0.31886080 0.52158028 2.34079599 58 58 58
-0.31461185 0.52153778 2.34060526 56 56 56
-0.31036356 0.52149528 2.34041452 54 54 54
-0.30611598 0.52145278 2.34022379 56 56 56
-0.30186912 0.52141029 2.34003329 55 55 55
-0.29762292 0.52136779 2.33984256 54 54 54
-0.29337743 0.52132535 2.33965206 54 55 54
-0.28913262 0.52128291 2.33946157 57 57 57
-0.28488851 0.52124047 2.33927107 59 59 58
-0.28064510 0.52119803 2.33908057 59 59 59
-0.27640235 0.52115560 2.33889008 58 58 58
-0.27216032 0.52111316 2.33869982 58 58 58
-0.26791897 0.52107072 2.33850932 55 55 55
-0.26367831 0.52102834 2.33831906 57 57 57
-0.25943834 0.52098596 2.33812881 55 55 55
-0.25519907 0.52094358 2.33793855 55 55 55
-0.25096047 0.52090114 2.33774829 55 55 55
-0.24672259 0.52085882 2.33755827 56 56 56
-0.24248539 0.52081645 2.33736801 56 56 56
-0.23824885 0.52077401 2.33717775 56 56 56
-0.23401304 0.52073169 2.33698773 54 54 54
-0.22977789 0.52068937 2.33679771 56 56 56
-0.22554342 0.52064699 2.33660746 58 58 58
-0.22130966 0.52060461 2.33641744 57 57 57
-0.21707658 0.52056229 2.33622742 56 56 56
-0.21284421 0.52051997 2.33603764 54 54 54
-0.20861247 0.52047759 2.33584738 57 57 57
-0.20438148 0.52043533 2.33565760 57 57 57
-0.20015115 0.52039295 2.33546758 58 58 57
-0.19592151 0.52035069 2.33527780 55 55 55
-0.19169256 0.52030838 2.33508801 56 56 55
-0.18746431 0.52026612 2.33489823 57 57 57
-0.18323673 0.52022380 2.33470845 54 54 54
-0.17900984 0.52018154 2.33451867 53 53 53
-0.17478365 0.52013928 2.33432913 53 53 53
-0.17055812 0.52009702 2.33413935 54 54 54
-0.16633330 0.52005476 2.33394980 55 55 55
-0.16210915 0.52001250 2.33376002 56 56 56
-0.15788570 0.51997024 2.33357048 57 57 57
-0.15366293 0.51992804 2.33338094 56 56 56
-0.14944085 0.51988578 2.33319139 56 56 56
-0.14521948 0.51984358 2.33300209 56 56 56
-0.14099875 0.51980138 2.33281255 57 57 57
-0.13677874 0.51975918 2.33262324 58 58 58
-0.13255939 0.51971698 2.33243370 58 58 58
-0.12834074 0.51967478 2.33224440 53 54 53
-0.12412277 0.51963258 2.33205509 54 54 54
-0.11990548 0.51959044 2.33186579 56 56 56
-0.11568888 0.51954824 2.33167648 56 56 56
-0.11147297 0.51950610 2.33148742 55 55 55
-0.10725773 0.51946390 2.33129811 55 55 55
-0.10304319 0.51942182 2.33110905 56 56 56
-0.09882932 0.51937962 2.33091974 56 56 55
-0.09461614 0.51933748 2.33073068 54 54 54
-0.09040365 0.51929533 2.33054161 53 53 53
-0.08619183 0.51925325 2.33035254 55 55 55
-0.08198070 0.51921111 2.33016348 58 58 58
-0.07777026 0.51916903 2.32997465 55 56 55
-0.07356049 0.51912689 2.32978559 55 56 55
-0.06935141 0.51908481 2.32959676 57 57 57
-0.06514301 0.51904267 2.32940769 56 56 56
-0.06093530 0.51900065 2.32921886 56 56 56
-0.05672826 0.51895857 2.32903004 56 56 56
-0.05252191 0.51891649 2.32884121 58 58 58
-0.04831624 0.51887447 2.32865262 56 56 56
-0.04411126 0.51883245 2.32846403 56 56 56
-0.03990695 0.51879036 2.32827520 57 57 57
-0.03570333 0.51874834 2.32808661 56 56 56
-0.03150038 0.51870626 2.32789779 56 56 56
-0.02729812 0.51866424 2.32770920 56 56 56
-0.02309654 0.51862222 2.32752061 57 57 57
-0.01889564 0.51858020 2.32733202 57 57 57
-0.01469542 0.51853824 2.32714367 55 55 55
-0.01049587 0.51849622 2.32695508 56 56 56
-0.00629702 0.51845425 2.32676673 56 56 56
-0.00209883 0.51841223 2.32657814 56 56 56
0.00209866 0.51837027 2.32638979 57 57 57
0.00629548 0.51832825 2.32620144 56 56 56
0.01049163 0.51828629 2.32601309 56 56 56
0.01468709 0.51824433 2.32582474 58 58 57
0.01888187 0.51820236 2.32563639 56 56 56
0.02307597 0.51816046 2.32544827 54 54 54
0.02726939 0.51811850 2.32525992 55 55 55
0.03146214 0.51807660 2.32507181 55 55 55
0.03565421 0.51803464 2.32488370 58 59 58
0.03984560 0.51799273 2.32469559 59 59 59
0.04403631 0.51795083 2.32450747 56 56 56
0.04822633 0.51790893 2.32431936 54 54 54
0.05241569 0.51786697 2.32413125 53 53 53
0.05660437 0.51782513 2.32394338 48 48 47
0.06079236 0.51778322 2.32375526 57 57 57
0.06497969 0.51774132 2.32356739 58 58 58
0.06916633 0.51769948 2.32337952 58 58 58
0.07335229 0.51765764 2.32319164 56 56 56
0.07753758 0.51761574 2.32300377 56 56 56
0.08172219 0.51757389 2.32281590 57 57 57
0.08590613 0.51753205 2.32262802 54 54 54
0.09008940 0.51749021 2.32244039 53 53 53
0.09427198 0.51744843 2.32225275 54 54 54
0.09845389 0.51740658 2.32206511 58 58 58
0.10263512 0.51736480 2.32187748 59 59 59
0.10681567 0.51732296 2.32168961 56 56 56
0.11099556 0.51728117 2.32150221 57 57 57
0.11517476 0.51723939 2.32131457 58 58 58
0.11935329 0.51719755 2.32112694 56 56 56
0.12353115 0.51715583 2.32093954 56 56 56
0.12770832 0.51711398 2.32075191 53 53 53
0.13188483 0.51707226 2.32056451 54 54 54
0.13606066 0.51703048 2.32037711 57 57 57
0.14023581 0.51698875 2.32018971 57 57 57
0.14441028 0.51694697 2.32000232 56 56 56
0.14858410 0.51690525 2.31981492 56 56 55
0.15275721 0.51686347 2.31962752 56 56 55
0.15692969 0.51682174 2.31944036 55 55 55
0.16110148 0.51678008 2.31925321 55 55 55
0.16527258 0.51673830 2.31906581 55 55 55
0.16944301 0.51669657 2.31887865 55 55 54
0.17361277 0.51665491 2.31869149 54 54 53
0.17778187 0.51661319 2.31850433 54 54 54
0.18195030 0.51657152 2.31831741 56 56 56
0.18611804 0.51652986 2.31813025 56 56 56
0.19028510 0.51648813 2.31794310 57 57 57
0.19445151 0.51644647 2.31775618 56 56 56
0.19861725 0.51640481 2.31756926 56 56 56
0.20278230 0.51636320 2.31738234 55 55 55
0.20694669 0.51632154 2.31719542 56 56 56
0.21111040 0.51627988 2.31700850 56 56 56
0.21527344 0.51623821 2.31682158 55 55 55
0.21943580 0.51619661 2.31663465 56 56 56
0.22359751 0.51615500 2.31644797 57 57 57
0.22775854 0.51611340 2.31626129 56 56 56
0.23191889 0.51607174 2.31607437 56 56 56
0.23607858 0.51603013 2.31588769 56 56 56
0.24023758 0.51598853 2.31570101 56 56 56
0.24439593 0.51594692 2.31551433 56 56 56
0.24855362 0.51590538 2.31532788 55 55 55
0.25271061 0.51586384 2.31514120 56 56 56
0.25686696 0.51582229 2.31495476 56 56 56
0.26102260 0.51578069 2.31476808 56 56 56
0.26517761 0.51573914 2.31458163 54 54 54
0.26933193 0.51569760 2.31439519 55 55 55
0.27348560 0.51565605 2.31420875 55 55 55
0.27763858 0.51561451 2.31402230 55 55 55
0.28179088 0.51557297 2.31383586 56 56 56
0.28594255 0.51553148 2.31364965 56 56 55
0.29009351 0.51548994 2.31346321 55 55 55
0.29424384 0.51544845 2.31327701 55 55 55
0.29839349 0.51540697 2.31309080 54 54 54
0.30254248 0.51536542 2.31290460 54 54 54
0.30669078 0.51532394 2.31271839 55 55 55
0.31083840 0.51528245 2.31253219 55 55 55
0.31498536 0.51524097 2.31234598 57 57 57
0.31913167 0.51519948 2.31215978 56 56 56
0.32327732 0.51515806 2.31197381 55 55 54
0.32742229 0.51511663 2.31178784 54 54 54
0.33156660 0.51507515 2.31160188 56 56 56
0.33571026 0.51503372 2.31141591 56 56 56
0.33985323 0.51499230 2.31122994 56 56 56
0.34399551 0.51495087 2.31104398 57 57 57
0.34813717 0.51490951 2.31085825 56 56 56
0.35227814 0.51486802 2.31067228 55 55 55
0.35641843 0.51482660 2.31048632 55 55 55
0.36055806 0.51478523 2.31030059 56 56 56
0.36469704 0.51474386 2.31011486 54 54 54
0.36883536 0.51470244 2.30992913 56 56 56
0.37297300 0.51466107 2.30974340 54 54 54
0.37710997 0.51461971 2.30955768 54 54 54
0.38124627 0.51457828 2.30937195 54 54 54
0.38538194 0.51453698 2.30918646 54 54 54
0.38951689 0.51449561 2.30900073 54 54 54
0.39365050 0.51445329 2.30881095 53 53 53
0.39778337 0.51441097 2.30862093 54 54 54
0.40191561 0.51436865 2.30843115 54 54 54
0.40604711 0.51432633 2.30824113 57 57 57
0.41017801 0.51428407 2.30805159 55 55 55
0.41430813 0.51424176 2.30786157 54 54 54
0.41843766 0.51419950 2.30767202 52 52 52
0.42256647 0.51415724 2.30748224 55 55 55
0.42669460 0.51411492 2.30729246 54 54 54
0.43082207 0.51407272 2.30710292 55 55 55
0.43494883 0.51403040 2.30691314 54 54 53
0.43907493 0.51398820 2.30672359 54 54 54
0.44320035 0.51394594 2.30653405 56 56 56
0.44732511 0.51390374 2.30634451 55 55 55
0.45144916 0.51386148 2.30615497 54 54 54
0.45557255 0.51381928 2.30596542 56 56 56
0.45969528 0.51377708 2.30577612 58 58 58
0.46381727 0.51373482 2.30558658 56 56 56
0.46793866 0.51369268 2.30539727 54 54 54
0.47205928 0.51365042 2.30520773 56 56 56
0.47617936 0.51360828 2.30501866 55 55 55
0.48029861 0.51356608 2.30482912 54 54 54
0.48441732 0.51352394 2.30464005 54 54 54
0.48853526 0.51348174 2.30445075 54 54 54
0.49265260 0.51343960 2.30426168 54 54 54
0.49676919 0.51339746 2.30407238 55 55 55
0.50088513 0.51335531 2.30388331 56 56 56
0.50500041 0.51331317 2.30369425 56 56 56
0.50911498 0.51327097 2.30350494 56 56 56
0.51322895 0.51322895 2.30331612 56 56 56
0.51734215 0.51318681 2.30312705 58 58 58
0.52145469 0.51314467 2.30293798 59 59 59
0.52556664 0.51310259 2.30274916 53 53 53
0.52967787 0.51306051 2.30256033 54 54 54
0.53378838 0.51301837 2.30237126 56 56 56
0.53789824 0.51297629 2.30218244 56 56 56
0.54200745 0.51293427 2.30199361 55 55 55
0.54611593 0.51289219 2.30180478 54 54 54
0.55022377 0.51285011 2.30161595 57 57 57
0.55433100 0.51280808 2.30142736 58 58 58
0.55843747 0.51276600 2.30123854 57 57 57
0.56254333 0.51272398 2.30104995 55 55 55
0.56664848 0.51268196 2.30086136 55 55 55
0.57075298 0.51263994 2.30067277 54 54 54
0.57485676 0.51259792 2.30048418 55 55 55
0.57895988 0.51255590 2.30029559 55 55 55
0.58306241 0.51251394 2.30010724 55 55 55
0.58716416 0.51247191 2.29991865 56 56 56
0.59126532 0.51242995 2.29973030 56 56 56
0.59536570 0.51238793 2.29954171 56 56 56
0.59946549 0.51234591 2.29935336 54 54 54
0.60356462 0.51230395 2.29916501 56 56 56
0.60766304 0.51226199 2.29897666 53 53 53
0.61176080 0.51222003 2.29878831 55 55 55
0.61585784 0.51217806 2.29859996 54 54 54
0.61995429 0.51213616 2.29841185 54 54 54
0.62405002 0.51209420 2.29822350 55 55 55
0.62814510 0.51205224 2.29803538 55 55 55
0.63223952 0.51201034 2.29784727 54 54 54
0.63633323 0.51196843 2.29765916 55 55 55
0.64042628 0.51192653 2.29747105 56 56 55
0.64451867 0.51188463 2.29728293 55 55 54
0.64861041 0.51184273 2.29709506 55 55 55
0.65270144 0.51180083 2.29690695 54 54 53
0.65679187 0.51175898 2.29671907 53 53 53
0.66088158 0.51171708 2.29653120 54 54 54
0.66497064 0.51167524 2.29634333 54 54 54
0.66905904 0.51163340 2.29615545 54 54 54
0.67314672 0.51159149 2.29596758 54 54 54
0.67723376 0.51154965 2.29577971 55 55 55
0.68132019 0.51150787 2.29559207 56 56 56
0.68540585 0.51146597 2.29540420 56 56 56
0.68949080 0.51142412 2.29521632 54 54 54
0.69357526 0.51138234 2.29502892 54 54 54
0.69765890 0.51134050 2.29484105 58 58 58
0.70174199 0.51129872 2.29465365 57 57 57
0.70582426 0.51125687 2.29446578 56 56 56
0.70990604 0.51121515 2.29427838 57 57 57
0.71398699 0.51117331 2.29409075 57 57 57
0.71806741 0.51113158 2.29390335 56 56 56
0.72214711 0.51108980 2.29371595 54 54 54
0.72622615 0.51104802 2.29352856 53 53 53
0.73030448 0.51100624 2.29334092 55 55 55
0.73438215 0.51096445 2.29315352 54 54 54
0.73845923 0.51092279 2.29296637 54 54 54
0.74253559 0.51088101 2.29277897 55 55 55
0.74661130 0.51083934 2.29259181 53 53 52
0.75068629 0.51079756 2.29240441 54 54 54
0.75477529 0.51076573 2.29226160 54 54 54
0.75887191 0.51073939 2.29214334 54 54 54
0.76296806 0.51071304 2.29202509 55 55 55
0.76706380 0.51068670 2.29190683 54 54 54
0.77114254 0.51064932 2.29173923 56 56 56
0.77521557 0.51060867 2.29155660 57 57 57
0.77928787 0.51056790 2.29137373 55 55 55
0.78716058 0.51300436 2.30230832 46 46 46
0.79159117 0.51318377 2.30311346 44 44 44
0.79750359 0.51431692 2.30819893 36 36 36
0.79898816 0.51259762 2.30048275 47 47 47
0.80126393 0.51140100 2.29511261 51 51 50
0.80503684 0.51116735 2.29406404 50 50 50
0.80880642 0.51093400 2.29301667 52 52 52
0.81257248 0.51070076 2.29197001 54 54 54
0.81633520 0.51046783 2.29092455 54 54 54
0.82009435 0.51023501 2.28987980 54 54 54
0.82408738 0.51014936 2.28949523 54 54 54
0.82815218 0.51010871 2.28931284 54 54 54
0.83221632 0.51006806 2.28913045 54 54 54
0.83627975 0.51002741 2.28894806 55 55 55
0.84034258 0.50998676 2.28876567 55 55 55
0.84440470 0.50994611 2.28858328 54 54 54
0.84846622 0.50990552 2.28840089 54 54 54
0.85252714 0.50986493 2.28821874 53 53 53
0.85658735 0.50982428 2.28803635 52 52 52
0.86064690 0.50978369 2.28785419 55 55 55
0.86470586 0.50974309 2.28767204 59 59 59
0.86876416 0.50970250 2.28748989 59 59 59
0.87282181 0.50966191 2.28730774 58 58 58
0.87687880 0.50962132 2.28712559 54 54 54
0.88093519 0.50958079 2.28694367 56 56 56
0.88499087 0.50954020 2.28676152 55 55 55
0.88904595 0.50949967 2.28657961 56 56 56
0.89310032 0.50945908 2.28639746 56 56 56
0.89715409 0.50941855 2.28621554 54 54 54
0.90120727 0.50937802 2.28603363 54 54 54
0.90525973 0.50933748 2.28585172 54 54 54
0.90931153 0.50929695 2.28566980 56 56 56
0.91336280 0.50925648 2.28548813 56 56 56
0.91741329 0.50921595 2.28530622 55 55 55
0.92146325 0.50917542 2.28512454 50 50 50
0.92551243 0.50913489 2.28494263 52 52 52
0.92956108 0.50909442 2.28476095 53 53 53
0.93360907 0.50905395 2.28457928 54 54 54
0.93765640 0.50901347 2.28439760 54 54 54
0.94170308 0.50897300 2.28421593 53 53 53
0.94574916 0.50893259 2.28403449 54 54 54
0.94979453 0.50889206 2.28385282 55 55 55
0.95383930 0.50885165 2.28367138 56 56 56
0.95788336 0.50881118 2.28348970 57 57 57
0.96195149 0.50878376 2.28336668 56 56 56
0.96636200 0.50893694 2.28405404 56 56 56
0.97083110 0.50911951 2.28487349 53 53 53
0.97530341 0.50930220 2.28569341 56 56 56
0.97977889 0.50948501 2.28651381 56 56 56
-0.79635113 0.53161240 2.36665606 116 116 116
-0.79164356 0.53131872 2.36534858 54 54 54
-0.78694111 0.53102529 2.36404228 56 56 56
-0.78224373 0.53073215 2.36273718 56 56 56
-0.77760005 0.53047234 2.36158061 56 56 56
-0.77321100 0.53038442 2.36118913 56 56 56
-0.76888770 0.53034079 2.36099505 54 54 54
-0.76456517 0.53029728 2.36080122 55 55 55
-0.76024324 0.53025371 2.36060715 53 53 53
-0.75592202 0.53021008 2.36041307 53 53 53
-0.75160158 0.53016657 2.36021924 54 54 54
-0.74728185 0.53012300 2.36002541 57 57 57
-0.74296278 0.53007948 2.35983157 58 58 58
-0.73864442 0.53003591 2.35963774 56 56 56
-0.73432678 0.52999240 2.35944390 56 56 56
-0.73000985 0.52994883 2.35925007 58 58 58
-0.72569358 0.52990532 2.35905623 58 58 58
-0.72137815 0.52986181 2.35886264 58 58 57
-0.71706337 0.52981836 2.35866904 57 57 57
-0.71274930 0.52977484 2.35847545 55 55 55
-0.70843589 0.52973133 2.35828185 54 54 54
-0.70412326 0.52968788 2.35808825 56 56 56
-0.69981128 0.52964437 2.35789466 55 56 55
-0.69549996 0.52960092 2.35770106 55 55 55
-0.69118947 0.52955747 2.35750771 57 57 57
-0.68687958 0.52951396 2.35731411 56 56 56
-0.68257046 0.52947056 2.35712075 57 57 57
-0.67826205 0.52942711 2.35692739 56 56 56
-0.67395431 0.52938366 2.35673404 53 53 53
-0.66964728 0.52934027 2.35654068 54 54 54
-0.66534096 0.52929682 2.35634732 54 54 54
-0.66103542 0.52925342 2.35615420 56 56 56
-0.65673047 0.52920997 2.35596085 56 56 56
-0.65242630 0.52916664 2.35576773 54 54 54
-0.64812285 0.52912325 2.35557461 56 56 55
-0.64382005 0.52907985 2.35538149 56 56 56
-0.63951802 0.52903646 2.35518837 56 56 56
-0.63525450 0.52902466 2.35513568 56 56 56
-0.63120425 0.52919143 2.35587811 56 56 56
-0.62715143 0.52935833 2.35662127 55 55 55
-0.62309605 0.52952534 2.35736465 52 52 52
-0.61903822 0.52969247 2.35810876 50 50 50
-0.61497784 0.52985978 2.35885358 49 49 49
-0.61247849 0.53138381 2.36563826 40 40 40
-0.60838687 0.53153801 2.36632466 40 40 40
-0.60379499 0.53125423 2.36506152 46 46 46
-0.59832722 0.53019035 2.36032510 50 50 50
-0.59224176 0.52855986 2.35306644 58 58 57
-0.58794808 0.52851653 2.35287356 57 57 56
-0.58365518 0.52847326 2.35268092 56 56 56
-0.57936305 0.52843004 2.35248852 56 56 56
-0.57507151 0.52838677 2.35229588 54 54 54
-0.57078069 0.52834350 2.35210323 54 54 54
-0.56649065 0.52830029 2.35191083 51 51 51
-0.56220120 0.52825701 2.35171819 59 59 59
-0.55791253 0.52821380 2.35152578 56 56 56
-0.55362457 0.52817053 2.35133338 56 56 56
-0.54933727 0.52812731 2.35114098 56 56 56
-0.54505068 0.52808410 2.35094857 59 59 59
-0.54076475 0.52804089 2.35075617 58 58 58
-0.53647959 0.52799767 2.35056376 56 56 56
-0.53219503 0.52795446 2.35037136 56 56 56
-0.52791131 0.52791131 2.35017920 56 56 56
-0.52362823 0.52786815 2.34998703 56 56 56
-0.51934582 0.52782488 2.34979463 57 57 57
-0.51506412 0.52778172 2.34960246 58 58 58
-0.51078314 0.52773857 2.34941030 58 58 57
-0.50650287 0.52769548 2.34921837 57 57 57
-0.50222325 0.52765232 2.34902620 57 57 57
-0.49794436 0.52760911 2.34883404 57 57 57
-0.49366620 0.52756602 2.34864211 54 54 54
-0.48938873 0.52752292 2.34845018 55 55 55
-0.48511195 0.52747983 2.34825826 55 55 55
-0.48083580 0.52743661 2.34806609 55 55 55
-0.47656047 0.52739358 2.34787440 55 55 55
-0.47228575 0.52735049 2.34768248 55 55 55
-0.46801174 0.52730733 2.34749055 57 57 57
-0.46373847 0.52726430 2.34729886 56 56 56
-0.45946586 0.52722120 2.34710693 57 57 57
-0.45519397 0.52717811 2.34691525 56 56 56
-0.45092276 0.52713507 2.34672356 56 56 56
-0.44665226 0.52709198 2.34653187 55 55 55
-0.44238245 0.52704895 2.34634018 55 55 54
-0.43811333 0.52700591 2.34614849 56 56 56
-0.43384495 0.52696288 2.34595704 57 57 57
-0.42957720 0.52691984 2.34576535 57 57 57
-0.42531019 0.52687681 2.34557390 53 53 53
-0.42104390 0.52683383 2.34538245 54 54 54
-0.41677827 0.52679080 2.34519100 57 57 57
-0.41251335 0.52674782 2.34499955 57 57 57
-0.40824911 0.52670479 2.34480810 58 58 58
-0.40398559 0.52666187 2.34461689 53 53 53
-0.39972275 0.52661884 2.34442544 56 56 56
-0.39546061 0.52657592 2.34423423 54 54 54
-0.39119914 0.52653289 2.34404278 56 56 56
-0.38693839 0.52648991 2.34385157 54 54 54
-0.38267833 0.52644700 2.34366035 56 56 56
-0.37841898 0.52640402 2.34346914 57 57 57
-0.37416032 0.52636117 2.34327817 57 57 57
-0.36990234 0.52631819 2.34308696 56 56 56
-0.36564505 0.52627522 2.34289575 55 55 55
-0.36138847 0.52623236 2.34270477 54 54 54
-0.35713258 0.52618945 2.34251380 56 56 56
-0.35287741 0.52614653 2.34232283 58 58 58
-0.34862289 0.52610368 2.34213185 56 56 56
-0.34436908 0.52606076 2.34194088 54 54 54
-0.34011596 0.52601784 2.34174991 56 56 56
-0.33586356 0.52597499 2.34155917 56 56 56
-0.33161181 0.52593213 2.34136820 57 57 57
-0.32736078 0.52588928 2.34117746 54 54 54
-0.32311046 0.52584642 2.34098673 54 54 54
-0.31886080 0.52580357 2.34079599 56 56 56
-0.31461185 0.52576071 2.34060526 55 55 55
-0.31036356 0.52571791 2.34041452 54 54 54
-0.30611598 0.52567506 2.34022379 55 55 55
-0.30186912 0.52563226 2.34003329 55 55 55
-0.29762292 0.52558941 2.33984256 54 54 54
-0.29337743 0.52554661 2.33965206 55 55 55
-0.28913262 0.52550381 2.33946157 56 56 56
-0.28488851 0.52546102 2.33927107 56 56 56
-0.28064510 0.52541828 2.33908057 58 58 58
-0.27640235 0.52537549 2.33889008 57 57 57
-0.27216032 0.52533275 2.33869982 57 57 57
-0.26791897 0.52528995 2.33850932 56 56 56
-0.26367831 0.52524722 2.33831906 55 55 55
-0.25943834 0.52520448 2.33812881 54 54 54
-0.25519907 0.52516174 2.33793855 54 54 54
-0.25096047 0.52511901 2.33774829 55 55 55
-0.24672259 0.52507633 2.33755827 56 56 56
-0.24248539 0.52503359 2.33736801 56 56 56
-0.23824885 0.52499086 2.33717775 56 56 56
-0.23401304 0.52494812 2.33698773 56 56 56
-0.22977789 0.52490544 2.33679771 56 56 56
-0.22554342 0.52486271 2.33660746 56 56 56
-0.22130966 0.52482003 2.33641744 56 56 56
-0.21707658 0.52477735 2.33622742 56 56 56
-0.21284419 0.52473468 2.33603740 55 55 55
-0.20861247 0.52469200 2.33584738 56 56 56
-0.20438148 0.52464938 2.33565760 54 54 54
-0.20015115 0.52460670 2.33546758 55 55 55
-0.19592151 0.52456403 2.33527780 57 57 57
-0.19169256 0.52452141 2.33508801 54 54 53
-0.18746431 0.52447879 2.33489823 56 56 55
-0.18323673 0.52443618 2.33470845 54 54 54
-0.17900984 0.52439356 2.33451867 54 54 54
-0.17478365 0.52435094 2.33432913 53 53 53
-0.17055812 0.52430832 2.33413935 53 53 53
-0.16633330 0.52426577 2.33394980 55 55 55
-0.16210915 0.52422309 2.33376002 55 55 55
-0.15788570 0.52418053 2.33357048 55 55 55
-0.15366293 0.52413797 2.33338094 55 56 55
-0.14944085 0.52409542 2.33319139 57 57 56
-0.14521948 0.52405286 2.33300209 56 56 56
-0.14099875 0.52401030 2.33281255 58 58 58
-0.13677874 0.52396774 2.33262324 58 58 58
-0.13255939 0.52392519 2.33243370 59 59 58
-0.12834074 0.52388269 2.33224440 53 53 53
-0.12412277 0.52384013 2.33205509 55 55 55
-0.11990548 0.52379763 2.33186579 57 57 57
-0.11568888 0.52375507 2.33167648 56 56 56
-0.11147297 0.52371264 2.33148742 56 56 56
-0.10725773 0.52367014 2.33129811 55 55 55
-0.10304319 0.52362764 2.33110905 54 54 54
-0.09882932 0.52358514 2.33091974 54 54 54
-0.09461614 0.52354264 2.33073068 54 54 54
-0.09040365 0.52350020 2.33054161 54 54 54
-0.08619183 0.52345771 2.33035254 52 52 52
-0.08198070 0.52341527 2.33016348 54 54 54
-0.07777026 0.52337283 2.32997465 55 55 55
-0.07356049 0.52333033 2.32978559 56 56 56
-0.06935141 0.52328795 2.32959676 56 56 56
-0.06514301 0.52324545 2.32940769 56 56 56
-0.06093530 0.52320307 2.32921886 59 59 59
-0.05672826 0.52316064 2.32903004 56 56 56
-0.05252191 0.52311820 2.32884121 56 56 55
-0.04831624 0.52307588 2.32865262 52 52 52
-0.04411126 0.52303350 2.32846403 55 55 54
-0.03990695 0.52299106 2.32827520 58 58 58
-0.03570333 0.52294874 2.32808661 58 58 58
-0.03150038 0.52290630 2.32789779 56 56 56
-0.02729812 0.52286392 2.32770920 56 56 56
-0.02309654 0.52282161 2.32752061 58 58 58
-0.01889564 0.52277923 2.32733202 58 59 58
-0.01469542 0.52273691 2.32714367 55 55 55
-0.01049587 0.52269453 2.32695508 54 54 54
-0.00629702 0.52265227 2.32676673 56 56 55
-0.00209883 0.52260989 2.32657814 56 56 56
0.00209866 0.52256757 2.32638979 57 57 57
0.00629548 0.52252525 2.32620144 56 56 56
0.01049163 0.52248293 2.32601309 56 56 56
0.01468709 0.52244067 2.32582474 57 57 57
0.01888187 0.52239835 2.32563639 57 57 57
0.02307597 0.52235609 2.32544827 55 55 55
0.02726939 0.52231377 2.32525992 55 55 55
0.03146214 0.52227151 2.32507181 60 60 59
0.03565421 0.52222925 2.32488370 59 59 59
0.03984560 0.52218699 2.32469559 57 57 57
0.04403631 0.52214473 2.32450747 56 56 56
0.04822633 0.52210248 2.32431936 58 58 58
0.05241569 0.52206028 2.32413125 58 58 58
0.05660437 0.52201802 2.32394338 57 57 57
0.06079236 0.52197582 2.32375526 58 58 58
0.06497969 0.52193362 2.32356739 56 56 56
0.06916633 0.52189142 2.32337952 56 56 55
0.07335229 0.52184922 2.32319164 56 56 56
0.07753758 0.52180696 2.32300377 56 56 56
0.08172219 0.52176476 2.32281590 54 54 54
0.08590613 0.52172256 2.32262802 53 53 53
0.09008940 0.52168041 2.32244039 56 56 56
0.09427198 0.52163827 2.32225275 57 57 57
0.09845389 0.52159613 2.32206511 57 57 57
0.10263512 0.52155399 2.32187748 58 58 58
0.10681567 0.52151179 2.32168961 54 54 54
0.11099556 0.52146971 2.32150221 56 56 56
0.11517476 0.52142757 2.32131457 55 55 55
0.11935329 0.52138537 2.32112694 54 54 54
0.12353115 0.52134329 2.32093954 54 54 54
0.12770832 0.52130115 2.32075191 53 53 53
0.13188483 0.52125907 2.32056451 53 53 53
0.13606066 0.52121699 2.32037711 56 56 56
0.14023581 0.52117485 2.32018971 57 57 57
0.14441028 0.52113277 2.32000232 55 55 55
0.14858410 0.52109069 2.31981492 55 55 55
0.15275721 0.52104861 2.31962752 56 56 56
0.15692969 0.52100652 2.31944036 56 56 56
0.16110148 0.52096450 2.31925321 56 56 56
0.16527258 0.52092242 2.31906581 55 55 55
0.16944301 0.52088040 2.31887865 56 56 56
0.17361277 0.52083832 2.31869149 54 54 54
0.17778187 0.52079630 2.31850433 56 56 56
0.18195030 0.52075434 2.31831741 56 56 56
0.18611804 0.52071226 2.31813025 56 56 56
0.19028510 0.52067024 2.31794310 58 58 57
0.19445151 0.52062821 2.31775618 56 56 56
0.19861725 0.52058625 2.31756926 56 56 55
0.20278230 0.52054429 2.31738234 56 56 56
0.20694669 0.52050227 2.31719542 58 58 57
0.21111040 0.52046031 2.31700850 58 58 58
0.21527344 0.52041829 2.31682158 54 54 54
0.21943580 0.52037632 2.31663465 54 54 54
0.22359751 0.52033436 2.31644797 55 55 55
0.22775854 0.52029246 2.31626129 56 56 56
0.23191889 0.52025044 2.31607437 56 56 56
0.23607858 0.52020854 2.31588769 56 56 56
0.24023758 0.52016658 2.31570101 57 57 57
0.24439593 0.52012467 2.31551433 56 56 56
0.24855362 0.52008277 2.31532788 55 55 55
0.25271061 0.52004087 2.31514120 57 57 57
0.25686696 0.51999897 2.31495476 56 56 56
0.26102260 0.51995701 2.31476808 56 56 56
0.26517761 0.51991516 2.31458163 53 53 53
0.26933193 0.51987326 2.31439519 54 54 54
0.27348560 0.51983142 2.31420875 55 55 55
0.27763858 0.51978952 2.31402230 54 54 54
0.28179088 0.51974761 2.31383586 56 56 55
0.28594255 0.51970583 2.31364965 56 56 55
0.29009351 0.51966393 2.31346321 55 55 55
0.29424384 0.51962209 2.31327701 54 54 54
0.29839349 0.51958025 2.31309080 54 54 54
0.30254248 0.51953846 2.31290460 54 54 54
0.30669078 0.51949662 2.31271839 56 56 56
0.31083840 0.51945478 2.31253219 53 53 53
0.31498536 0.51941299 2.31234598 58 58 58
0.31913167 0.51937115 2.31215978 54 54 54
0.32327732 0.51932937 2.31197381 55 55 55
0.32742229 0.51928759 2.31178784 56 56 56
0.33156660 0.51924580 2.31160188 56 56 56
0.33571026 0.51920408 2.31141591 54 54 54
0.33985323 0.51916230 2.31122994 55 55 55
0.34399551 0.51912051 2.31104398 56 56 56
