//X Y Z R G B
1095
1.36638761 1.05264139 2.52022219 155 155 155
1.37093472 1.05264139 2.52022219 155 155 155
1.37548172 1.05264139 2.52022219 155 155 155
1.38002884 1.05264139 2.52022219 155 155 155
1.38457584 1.05264139 2.52022219 155 155 155
1.38912284 1.05264139 2.52022219 155 155 155
1.39366996 1.05264139 2.52022219 155 155 155
1.39821696 1.05264139 2.52022219 155 155 155
1.40276408 1.05264139 2.52022219 155 155 155
1.40731108 1.05264139 2.52022219 155 155 155
1.41185808 1.05264139 2.52022219 155 155 155
1.41640520 1.05264139 2.52022219 155 155 155
1.42095220 1.05264139 2.52022219 155 155 155
1.42549932 1.05264139 2.52022219 155 155 155
1.43004632 1.05264139 2.52022219 155 155 155
1.43459332 1.05264139 2.52022219 155 155 155
1.43914044 1.05264139 2.52022219 155 155 155
1.44368744 1.05264139 2.52022219 155 155 155
1.44823456 1.05264139 2.52022219 155 155 155
1.45278156 1.05264139 2.52022219 155 155 155
-1.09542024 0.79713678 1.90028727 73 73 73
-1.09247851 0.79749221 1.90113461 71 71 71
-1.08953404 0.79784775 1.90198219 72 72 72
-1.08658707 0.79820377 1.90283084 72 72 72
-1.08363736 0.79855996 1.90368009 73 73 73
-1.08068502 0.79891658 1.90453017 71 71 71
-1.07772994 0.79927343 1.90538085 70 70 70
-1.07477236 0.79963064 1.90623236 68 68 68
-1.07181215 0.79998821 1.90708482 70 70 70
-1.06884933 0.80034614 1.90793800 73 73 73
-1.06588364 0.80070418 1.90879166 72 72 72
-1.06291556 0.80106276 1.90964639 69 69 69
-1.05994463 0.80142152 1.91050172 69 69 69
-1.05697119 0.80178076 1.91135800 73 73 73
-1.05399501 0.80214024 1.91221499 72 72 72
-1.05101609 0.80249995 1.91307259 69 69 69
-1.04803467 0.80286014 1.91393113 68 68 68
-1.04505050 0.80322063 1.91479051 69 69 69
-1.04206347 0.80358130 1.91565037 68 68 68
-1.03907394 0.80394238 1.91651118 69 69 69
-1.03608167 0.80430382 1.91737270 70 70 70
-1.03308678 0.80466557 1.91823506 68 68 68
-1.03008914 0.80502766 1.91909826 74 74 74
-1.02708876 0.80539000 1.91996205 73 73 73
-1.02408576 0.80575275 1.92082679 74 74 74
-1.02108002 0.80611581 1.92169237 69 69 69
-1.01807153 0.80647910 1.92255843 69 69 69
-1.01506042 0.80684286 1.92342556 68 68 68
-1.01204646 0.80720687 1.92429328 69 69 69
-1.00902987 0.80757117 1.92516184 73 73 73
-1.00601053 0.80793595 1.92603135 74 74 74
-1.00298846 0.80830091 1.92690134 71 71 70
-0.99996370 0.80866629 1.92777240 67 67 67
-0.99693620 0.80903196 1.92864418 67 67 67
-0.99390584 0.80939794 1.92951655 65 65 65
-0.99087292 0.80976433 1.93039000 65 65 65
-0.98783708 0.81013089 1.93126392 68 68 68
-0.98494273 0.81061655 1.93242168 67 67 67
-0.98205268 0.81110924 1.93359613 66 66 66
-0.97915906 0.81160247 1.93477190 64 64 64
-0.97626191 0.81209624 1.93594897 63 63 63
-0.97336125 0.81259060 1.93712759 63 63 63
-0.97045702 0.81308562 1.93830764 62 62 62
-0.96754932 0.81358123 1.93948913 60 60 60
-0.96463788 0.81407738 1.94067180 58 58 58
-0.96172309 0.81457424 1.94185627 56 56 56
-0.95880473 0.81507170 1.94304216 55 55 55
-0.95588279 0.81556976 1.94422948 56 56 56
-0.95295715 0.81606829 1.94541800 56 56 56
-0.95002812 0.81656760 1.94660830 55 55 55
-0.94709539 0.81706750 1.94779992 55 55 55
-0.94415915 0.81756800 1.94899309 55 55 55
-0.94121915 0.81806898 1.95018744 54 54 54
-0.93827569 0.81857073 1.95138347 54 54 54
-0.93532860 0.81907308 1.95258105 54 54 54
-0.93237776 0.81957597 1.95377982 54 54 53
-0.92942351 0.82007957 1.95498037 53 53 53
-0.92646545 0.82058370 1.95618224 54 54 54
-0.92350394 0.82108855 1.95738578 54 54 54
-0.92053854 0.82159388 1.95859039 55 55 54
-0.91756964 0.82209992 1.95979679 54 54 54
-0.91459709 0.82260668 1.96100473 54 54 54
-0.91162086 0.82311398 1.96221411 54 54 54
-0.90864080 0.82362181 1.96342468 54 54 54
-0.90565723 0.82413036 1.96463704 54 54 54
-0.90266997 0.82463956 1.96585095 53 53 53
-0.89967901 0.82514936 1.96706629 52 52 52
-0.89668423 0.82565975 1.96828294 52 52 52
-0.89368588 0.82617086 1.96950138 53 53 53
-0.89068377 0.82668257 1.97072124 54 54 54
-0.88767791 0.82719481 1.97194242 54 54 54
-0.88466835 0.82770777 1.97316527 52 52 52
-0.88165510 0.82822144 1.97438979 51 51 51
-0.87863809 0.82873571 1.97561574 51 51 51
-0.87561721 0.82925051 1.97684300 51 51 51
-0.87258130 0.82975525 1.97804618 59 59 59
-0.86953968 0.83025861 1.97924614 59 59 59
-0.86649412 0.83076245 1.98044717 59 59 59
-0.86344504 0.83126700 1.98164999 67 67 66
-0.87313944 0.84409529 2.01223135 66 66 66
-0.86983091 0.84440786 2.01297641 74 74 74
-0.86652005 0.84472078 2.01372242 79 79 78
-0.86320662 0.84503382 2.01446867 82 82 82
-0.85989076 0.84534717 2.01521564 90 91 90
-0.85657257 0.84566081 2.01596332 89 89 89
-0.85325187 0.84597462 2.01671147 92 92 91
-0.84992862 0.84628868 2.01746011 94 94 94
-0.84660292 0.84660292 2.01820922 88 88 88
-0.84327483 0.84691745 2.01895905 88 88 88
-0.83994418 0.84723222 2.01970935 95 95 95
-0.83661103 0.84754711 2.02046013 96 96 96
-0.83327550 0.84786236 2.02121162 90 90 90
-0.82993734 0.84817773 2.02196336 87 87 87
-0.82659674 0.84849334 2.02271581 90 90 90
-0.82325375 0.84880930 2.02346897 90 90 90
-0.81990820 0.84912544 2.02422261 90 90 90
-0.81662524 0.84950948 2.02513814 88 88 88
-0.81335008 0.84990513 2.02608132 84 84 84
-0.81007177 0.85030109 2.02702522 88 88 88
-0.80679047 0.85069746 2.02797008 95 95 95
-0.80350602 0.85109407 2.02891564 98 98 98
-0.80021852 0.85149115 2.02986217 96 96 95
-0.79692805 0.85188860 2.03080964 96 96 95
-0.79363447 0.85228646 2.03175807 96 96 96
-0.79033774 0.85268456 2.03270721 94 94 94
-0.78703797 0.85308313 2.03365731 90 90 90
-0.78373516 0.85348207 2.03460836 91 91 91
-0.78042924 0.85388142 2.03556037 94 94 94
-0.77712023 0.85428107 2.03651309 97 97 96
-0.77380806 0.85468113 2.03746676 97 97 97
-0.77049279 0.85508150 2.03842115 90 90 90
-0.76717448 0.85548234 2.03937674 95 95 94
-0.76385301 0.85588348 2.04033303 96 96 95
-0.76052845 0.85628504 2.04129028 97 97 97
-0.75720072 0.85668695 2.04224849 100 100 99
-0.75386995 0.85708934 2.04320765 99 99 99
-0.75053596 0.85749197 2.04416752 94 94 93
-0.74719888 0.85789502 2.04512835 92 92 92
-0.74385870 0.85829848 2.04609013 96 96 96
-0.74051535 0.85870230 2.04705286 91 91 91
-0.73716879 0.85910648 2.04801631 96 96 96
-0.73381919 0.85951114 2.04898095 99 99 99
-0.73046637 0.85991609 2.04994631 98 98 98
-0.72711039 0.86032140 2.05091262 98 98 98
-0.72375113 0.86072707 2.05187964 97 97 97
-0.72038889 0.86113322 2.05284786 97 97 97
-0.71702343 0.86153978 2.05381703 98 98 98
-0.71365476 0.86194664 2.05478692 96 96 96
-0.71028286 0.86235386 2.05575776 98 98 98
-0.70690781 0.86276150 2.05672956 99 99 99
-0.70352960 0.86316955 2.05770230 99 99 99
-0.70014811 0.86357790 2.05867577 99 99 99
-0.69676352 0.86398679 2.05965042 100 100 100
-0.69337565 0.86439592 2.06062579 94 94 94
-0.68998468 0.86480558 2.06160235 97 97 96
-0.68659037 0.86521554 2.06257963 100 100 99
-0.68319291 0.86562586 2.06355786 96 96 96
-0.67979217 0.86603665 2.06453705 104 104 104
-0.67638826 0.86644781 2.06551719 104 104 104
-0.67298114 0.86685932 2.06649828 102 102 102
-0.66957062 0.86727118 2.06748009 100 100 99
-0.66615701 0.86768353 2.06846309 97 97 97
-0.66274011 0.86809617 2.06944680 98 98 98
-0.65932000 0.86850935 2.07043171 99 99 99
-0.65589654 0.86892277 2.07141733 99 99 99
-0.65246987 0.86933666 2.07240391 102 102 102
-0.64903998 0.86975098 2.07339168 99 99 99
-0.64560676 0.87016565 2.07438016 101 101 101
-0.64217025 0.87058067 2.07536960 99 99 99
-0.63873053 0.87099612 2.07635999 97 97 97
-0.63528746 0.87141198 2.07735133 97 97 97
-0.63184112 0.87182826 2.07834363 98 98 97
-0.62839150 0.87224489 2.07933688 97 97 97
-0.62493855 0.87266195 2.08033109 98 98 98
-0.62148237 0.87307948 2.08132648 101 101 100
-0.61802286 0.87349737 2.08232260 106 106 106
-0.61455995 0.87391549 2.08331943 104 104 104
-0.61109376 0.87433416 2.08431745 105 105 105
-0.60762429 0.87475318 2.08531642 104 104 104
-0.60415143 0.87517267 2.08631635 101 101 101
-0.60067528 0.87559253 2.08731723 99 99 99
-0.59719586 0.87601286 2.08831930 104 104 104
-0.59371305 0.87643349 2.08932209 101 101 101
-0.59022683 0.87685454 2.09032583 103 103 103
-0.58673733 0.87727612 2.09133077 107 107 107
-0.58324444 0.87769794 2.09233642 106 106 106
-0.57974821 0.87812024 2.09334302 99 99 99
-0.57624853 0.87854290 2.09435058 100 100 99
-0.57274562 0.87896603 2.09535933 102 102 102
-0.56923920 0.87938946 2.09636879 105 105 105
-0.56572950 0.87981343 2.09737945 108 108 108
-0.56221640 0.88023776 2.09839106 99 99 99
-0.55869985 0.88066244 2.09940338 101 101 101
-0.55517989 0.88108760 2.10041690 102 102 102
-0.55165660 0.88151312 2.10143137 103 103 103
-0.54812998 0.88193917 2.10244703 103 103 103
-0.54459983 0.88236552 2.10346341 96 96 96
-0.54106623 0.88279229 2.10448074 101 101 101
-0.53752929 0.88321954 2.10549927 104 104 104
-0.53398895 0.88364720 2.10651875 104 104 103
-0.53044516 0.88407528 2.10753918 103 103 102
-0.52689791 0.88450372 2.10856056 101 101 101
-0.52334720 0.88493258 2.10958290 100 100 100
-0.51979309 0.88536179 2.11060619 100 100 100
-0.51623547 0.88579148 2.11163044 98 98 98
-0.51267445 0.88622165 2.11265588 97 97 97
-0.50910997 0.88665217 2.11368227 108 108 108
-0.50554198 0.88708311 2.11470962 105 105 105
-0.50197053 0.88751447 2.11573792 100 100 100
-0.49839562 0.88794625 2.11676717 101 101 101
-0.49481720 0.88837838 2.11779737 104 104 104
-0.49123535 0.88881105 2.11882877 105 105 105
-0.48765004 0.88924420 2.11986136 101 101 101
-0.48406118 0.88967764 2.12089467 100 100 100
-0.48046878 0.89011151 2.12192893 98 98 98
-0.47687295 0.89054585 2.12296438 99 99 99
-0.47327358 0.89098060 2.12400079 100 100 100
-0.46967068 0.89141577 2.12503815 96 96 96
-0.46606424 0.89185131 2.12607646 102 102 102
-0.46245432 0.89228737 2.12711596 104 104 104
-0.45884085 0.89272380 2.12815642 101 101 101
-0.45522383 0.89316070 2.12919784 100 100 100
-0.45160326 0.89359796 2.13024020 100 100 100
-0.44797918 0.89403570 2.13128376 98 98 98
-0.44435152 0.89447385 2.13232827 100 100 100
-0.44072035 0.89491248 2.13337398 99 99 99
-0.43708554 0.89535147 2.13442039 100 100 100
-0.43344721 0.89579093 2.13546801 99 99 99
-0.42980528 0.89623076 2.13651657 99 99 99
-0.42615983 0.89667112 2.13756633 104 104 104
-0.42251074 0.89711189 2.13861704 99 99 99
-0.41885808 0.89755303 2.13966870 101 101 101
-0.41520178 0.89799458 2.14072132 99 99 98
-0.41154194 0.89843661 2.14177513 96 96 96
-0.40787852 0.89887917 2.14283013 98 98 98
-0.40421140 0.89932203 2.14388585 102 102 102
-0.40054074 0.89976537 2.14494276 99 99 99
-0.39686644 0.90020925 2.14600086 100 100 100
-0.39318848 0.90065342 2.14705968 98 98 98
-0.38950694 0.90109813 2.14811993 99 99 99
-0.38582173 0.90154320 2.14918089 100 100 99
-0.38213289 0.90198874 2.15024304 98 98 98
-0.37844041 0.90243483 2.15130639 97 97 97
-0.37474424 0.90288121 2.15237045 97 97 97
-0.37104443 0.90332806 2.15343571 101 101 101
-0.36734095 0.90377539 2.15450215 101 101 101
-0.36363381 0.90422314 2.15556955 98 98 98
-0.35992301 0.90467131 2.15663791 93 93 93
-0.35620850 0.90511996 2.15770745 94 94 94
-0.35249034 0.90556914 2.15877819 98 98 98
-0.34876844 0.90601856 2.15984964 98 98 98
-0.34504288 0.90646863 2.16092253 99 99 99
-0.34131363 0.90691906 2.16199636 100 100 99
-0.33758065 0.90736991 2.16307116 97 97 97
-0.33384395 0.90782130 2.16414714 96 96 96
-0.33010355 0.90827304 2.16522408 98 98 98
-0.32635942 0.90872532 2.16630220 95 95 95
-0.32261154 0.90917796 2.16738129 92 92 92
-0.31885993 0.90963113 2.16846156 94 94 94
-0.31510457 0.91008466 2.16954279 95 95 95
-0.31134546 0.91053861 2.17062497 96 96 96
-0.30758265 0.91099316 2.17170858 97 97 97
-0.30381605 0.91144812 2.17279315 96 96 96
-0.30004567 0.91190350 2.17387867 96 96 96
-0.29627153 0.91235936 2.17496538 96 96 96
-0.29249364 0.91281569 2.17605329 100 100 100
-0.28871194 0.91327244 2.17714214 102 102 102
-0.28492644 0.91372961 2.17823195 105 105 105
-0.28113720 0.91418737 2.17932320 103 103 102
-0.27734411 0.91464543 2.18041515 99 99 98
-0.27354723 0.91510409 2.18150854 98 98 97
-0.26974657 0.91556317 2.18260288 98 98 98
-0.26594204 0.91602260 2.18369818 97 97 97
-0.26213372 0.91648257 2.18479466 97 97 96
-0.25832158 0.91694301 2.18589234 99 99 98
-0.25450560 0.91740400 2.18699121 96 96 96
-0.25068581 0.91786534 2.18809104 92 92 92
-0.24686213 0.91832709 2.18919182 94 94 93
-0.24303463 0.91878945 2.19029403 101 101 100
-0.23920326 0.91925222 2.19139719 99 99 99
-0.23536804 0.91971546 2.19250154 94 94 94
-0.23152894 0.92017913 2.19360685 97 97 97
-0.22768600 0.92064339 2.19471359 95 95 95
-0.22383916 0.92110801 2.19582129 94 94 94
-0.21998842 0.92157310 2.19692993 96 96 96
-0.21613379 0.92203867 2.19803977 98 98 98
-0.21227528 0.92250472 2.19915080 95 95 95
-0.20841287 0.92297125 2.20026302 92 92 91
-0.20454653 0.92343825 2.20137620 98 98 98
-0.20067629 0.92390567 2.20249057 89 89 89
-0.19680211 0.92437357 2.20360589 94 94 93
-0.19292402 0.92484200 2.20472264 93 93 93
-0.18904200 0.92531085 2.20584035 96 96 96
-0.18515606 0.92578030 2.20695949 96 96 96
-0.18126614 0.92625004 2.20807934 93 93 93
-0.17737229 0.92672044 2.20920062 94 94 93
-0.17347448 0.92719120 2.21032286 97 97 96
-0.16957271 0.92766243 2.21144629 93 93 93
-0.16566697 0.92813420 2.21257091 92 92 92
-0.16175726 0.92860645 2.21369672 95 95 95
-0.15784355 0.92907912 2.21482348 92 93 92
-0.15392587 0.92955226 2.21595144 94 94 94
-0.15000418 0.93002594 2.21708059 95 95 95
-0.14607851 0.93050009 2.21821094 95 95 95
-0.14214884 0.93097478 2.21934247 96 96 95
-0.13821515 0.93144989 2.22047520 94 94 93
-0.13427745 0.93192559 2.22160912 91 91 91
-0.13033572 0.93240166 2.22274399 95 95 95
-0.12638995 0.93287820 2.22388005 95 95 95
-0.12244015 0.93335527 2.22501731 97 97 97
-0.11848632 0.93383282 2.22615576 96 96 95
-0.11452843 0.93431085 2.22729540 92 92 92
-0.11056649 0.93478942 2.22843623 92 92 92
-0.10660049 0.93526840 2.22957802 93 93 93
-0.10263042 0.93574792 2.23072124 94 94 94
-0.09865627 0.93622792 2.23186541 95 95 95
-0.09467806 0.93670845 2.23301101 92 92 92
-0.09069575 0.93718940 2.23415756 92 92 92
-0.08670936 0.93767101 2.23530555 96 96 96
-0.08271886 0.93815297 2.23645449 98 98 98
-0.07872426 0.93863541 2.23760462 93 93 93
-0.07472555 0.93911839 2.23875594 95 95 95
-0.07072271 0.93960184 2.23990846 93 93 92
-0.06671576 0.94008577 2.24106216 90 90 90
-0.06270468 0.94057024 2.24221706 94 94 94
-0.05868946 0.94105518 2.24337316 92 92 92
-0.05467010 0.94154066 2.24453044 91 91 91
-0.05064659 0.94202662 2.24568892 92 92 92
-0.04661893 0.94251317 2.24684882 90 90 90
-0.04258710 0.94300014 2.24800968 88 88 88
-0.03855111 0.94348758 2.24917173 90 90 90
-0.03451094 0.94397569 2.25033522 90 90 90
-0.03046658 0.94446415 2.25149965 94 94 94
-0.02641804 0.94495308 2.25266528 91 91 91
-0.02236531 0.94544256 2.25383210 95 95 94
-0.01830837 0.94593263 2.25500035 93 93 93
-0.01424723 0.94642305 2.25616956 91 91 90
-0.01018187 0.94691414 2.25734019 89 89 89
-0.00611229 0.94740570 2.25851202 92 92 92
-0.00203849 0.94789773 2.25968504 93 93 93
0.00203955 0.94839019 2.26085901 93 93 93
0.00612183 0.94888330 2.26203442 92 93 92
0.01020835 0.94937694 2.26321125 89 89 89
0.01429913 0.94987106 2.26438928 86 86 86
0.01839417 0.95036566 2.26556826 90 90 90
0.02249348 0.95086080 2.26674867 93 93 93
0.02659706 0.95135635 2.26793003 90 90 90
0.03070492 0.95185256 2.26911283 88 88 88
0.03481707 0.95234919 2.27029681 90 90 90
0.03893351 0.95284647 2.27148223 90 90 90
0.04305425 0.95334411 2.27266860 89 89 89
0.04717930 0.95384240 2.27385640 87 87 87
0.05130866 0.95434111 2.27504539 90 90 90
0.05544234 0.95484042 2.27623558 94 94 94
0.05958036 0.95534027 2.27742720 88 88 88
0.06372270 0.95584053 2.27861977 89 89 89
0.06786939 0.95634139 2.27981377 87 87 87
0.07202042 0.95684272 2.28100896 88 88 88
0.07617582 0.95734471 2.28220558 91 91 91
0.08033556 0.95784706 2.28340316 90 90 90
0.08449968 0.95835006 2.28460217 88 88 88
0.08866818 0.95885348 2.28580236 88 88 88
0.09284105 0.95935756 2.28700399 87 87 87
0.09701831 0.95986199 2.28820658 84 84 84
0.10119997 0.96036708 2.28941059 87 87 87
0.10538604 0.96087277 2.29061604 89 89 89
0.10957652 0.96137893 2.29182267 88 88 88
0.11377141 0.96188557 2.29303050 90 90 90
0.11797073 0.96239281 2.29423976 91 91 91
0.12217447 0.96290052 2.29544997 89 89 89
0.12638265 0.96340877 2.29666162 86 86 86
0.13059530 0.96391761 2.29787469 85 85 85
0.13481236 0.96442688 2.29908872 86 86 86
0.13903390 0.96493673 2.30030417 84 84 84
0.14325991 0.96544719 2.30152106 83 84 83
0.14749038 0.96595818 2.30273914 84 84 84
0.15172534 0.96646965 2.30395842 85 85 85
0.15596481 0.96698183 2.30517936 84 84 84
0.16020875 0.96749437 2.30640125 81 81 81
0.16445719 0.96800750 2.30762458 86 86 86
0.16871014 0.96852118 2.30884910 85 85 85
0.17296761 0.96903545 2.31007504 83 83 83
0.17722961 0.96955019 2.31130219 83 83 83
0.18149613 0.97006547 2.31253052 84 84 84
0.18576720 0.97058147 2.31376052 84 84 84
0.19004279 0.97109783 2.31499147 83 83 83
0.19432293 0.97161466 2.31622362 82 82 82
0.19860767 0.97213227 2.31745744 83 83 83
0.20289694 0.97265029 2.31869245 84 85 84
0.20719080 0.97316885 2.31992865 86 87 86
0.21148923 0.97368801 2.32116628 87 87 86
0.21579228 0.97420788 2.32240558 86 86 86
0.22009991 0.97472817 2.32364583 86 86 86
0.22441214 0.97524905 2.32488751 82 82 82
0.22872898 0.97577041 2.32613039 85 85 84
0.23305044 0.97629237 2.32737470 89 89 88
0.23737651 0.97681481 2.32862020 86 86 85
0.24170722 0.97733790 2.32986712 86 86 86
0.24604258 0.97786152 2.33111548 86 86 86
0.25038257 0.97838569 2.33236504 84 84 84
0.25472724 0.97891051 2.33361602 88 88 88
0.25907657 0.97943586 2.33486843 81 81 81
0.26343060 0.97996181 2.33612227 83 83 82
0.26778924 0.98048818 2.33737707 86 86 86
0.27215260 0.98101526 2.33863354 86 86 86
0.27652067 0.98154283 2.33989120 88 88 88
0.28089342 0.98207098 2.34115028 87 87 87
0.28527087 0.98259962 2.34241056 87 87 87
0.28969902 0.98328501 2.34404445 85 85 85
0.29424444 0.98434293 2.34656644 82 82 81
0.29879963 0.98540306 2.34909368 86 86 86
0.30336466 0.98646551 2.35162640 87 87 87
0.32824299 1.05264127 2.50938225 137 137 137
0.33277047 1.05264127 2.50938225 155 155 155
0.33729798 1.05264127 2.50938225 155 155 155
0.34182546 1.05264127 2.50938225 155 155 155
0.34635293 1.05264127 2.50938225 155 155 155
0.35088044 1.05264127 2.50938225 155 155 155
0.35540792 1.05264127 2.50938225 155 155 155
0.35993540 1.05264127 2.50938225 155 155 155
0.36446291 1.05264127 2.50938225 155 155 155
0.36899039 1.05264127 2.50938225 155 155 155
0.37351787 1.05264127 2.50938225 155 155 155
0.37804538 1.05264127 2.50938225 155 155 155
0.38257286 1.05264127 2.50938225 155 155 155
0.38710034 1.05264127 2.50938225 155 155 155
0.39162785 1.05264127 2.50938225 155 155 155
0.39615533 1.05264127 2.50938225 155 155 155
0.40068281 1.05264127 2.50938225 155 155 155
0.40521032 1.05264127 2.50938225 155 155 155
0.40973780 1.05264127 2.50938225 155 155 155
0.41426528 1.05264127 2.50938225 155 155 155
0.41879278 1.05264127 2.50938225 155 155 155
0.42332026 1.05264127 2.50938225 155 155 155
0.42784774 1.05264127 2.50938225 155 155 155
0.43237525 1.05264127 2.50938225 155 155 155
0.43690273 1.05264127 2.50938225 155 155 155
0.44143021 1.05264127 2.50938225 155 155 155
0.44595772 1.05264127 2.50938225 155 155 155
0.45048520 1.05264127 2.50938225 155 155 155
0.45501268 1.05264127 2.50938225 155 155 155
0.45954019 1.05264127 2.50938225 155 155 155
0.46406767 1.05264127 2.50938225 155 155 155
0.46859515 1.05264127 2.50938225 155 155 155
0.47312266 1.05264127 2.50938225 155 155 155
0.47765014 1.05264127 2.50938225 155 155 155
0.48217762 1.05264127 2.50938225 155 155 155
0.48670512 1.05264127 2.50938225 155 155 155
0.49123260 1.05264127 2.50938225 155 155 155
0.49576008 1.05264127 2.50938225 155 155 155
0.50028759 1.05264127 2.50938225 155 155 155
0.50481504 1.05264127 2.50938225 155 155 155
0.50934255 1.05264127 2.50938225 155 155 155
0.51387006 1.05264127 2.50938225 155 155 155
0.51839751 1.05264127 2.50938225 155 155 155
0.52292502 1.05264127 2.50938225 155 155 155
0.52745253 1.05264127 2.50938225 155 155 155
0.53197998 1.05264127 2.50938225 155 155 155
0.53650749 1.05264127 2.50938225 155 155 155
0.54103500 1.05264127 2.50938225 155 155 155
0.54556245 1.05264127 2.50938225 155 155 155
0.55008996 1.05264127 2.50938225 155 155 155
0.55461746 1.05264127 2.50938225 155 155 155
0.55914491 1.05264127 2.50938225 155 155 155
0.56367242 1.05264127 2.50938225 155 155 155
0.56819993 1.05264127 2.50938225 155 155 155
0.57272738 1.05264127 2.50938225 155 155 155
0.57725489 1.05264127 2.50938225 155 155 155
0.58178240 1.05264127 2.50938225 155 155 155
0.58630985 1.05264127 2.50938225 155 155 155
0.59083736 1.05264127 2.50938225 155 155 155
0.59536487 1.05264127 2.50938225 155 155 155
0.59989232 1.05264127 2.50938225 155 155 155
0.60441983 1.05264127 2.50938225 155 155 155
0.60894734 1.05264127 2.50938225 155 155 155
0.61347479 1.05264127 2.50938225 155 155 155
0.61800230 1.05264127 2.50938225 155 155 155
0.62252980 1.05264127 2.50938225 155 155 155
0.62705725 1.05264127 2.50938225 155 155 155
0.63158476 1.05264127 2.50938225 155 155 155
0.63611227 1.05264127 2.50938225 155 155 155
0.64063978 1.05264127 2.50938225 155 155 155
0.64516723 1.05264127 2.50938225 155 155 155
0.64969474 1.05264127 2.50938225 155 155 155
0.65422225 1.05264127 2.50938225 155 155 155
0.65874970 1.05264127 2.50938225 155 155 155
0.66327721 1.05264127 2.50938225 155 155 155
0.66780472 1.05264127 2.50938225 155 155 155
0.67233217 1.05264127 2.50938225 155 155 155
0.67685968 1.05264127 2.50938225 155 155 155
0.68138719 1.05264127 2.50938225 155 155 155
0.68591464 1.05264127 2.50938225 155 155 155
0.69044214 1.05264127 2.50938225 155 155 155
0.69496965 1.05264127 2.50938225 155 155 155
0.69949710 1.05264127 2.50938225 155 155 155
0.70402461 1.05264127 2.50938225 155 155 155
0.70855212 1.05264127 2.50938225 155 155 155
0.71307957 1.05264127 2.50938225 155 155 155
0.71760708 1.05264127 2.50938225 155 155 155
0.72213459 1.05264127 2.50938225 155 155 155
0.72666204 1.05264127 2.50938225 155 155 155
0.73118955 1.05264127 2.50938225 155 155 155
0.73571706 1.05264127 2.50938225 155 155 155
0.74024451 1.05264127 2.50938225 155 155 155
0.74477202 1.05264127 2.50938225 155 155 155
0.74929953 1.05264127 2.50938225 155 155 155
0.75382698 1.05264127 2.50938225 155 155 155
0.75835449 1.05264127 2.50938225 155 155 155
0.76288199 1.05264127 2.50938225 155 155 155
0.76740944 1.05264127 2.50938225 155 155 155
0.77193695 1.05264127 2.50938225 155 155 155
0.77646446 1.05264127 2.50938225 155 155 155
0.78099191 1.05264127 2.50938225 155 155 155
0.78551942 1.05264127 2.50938225 155 155 155
0.79004693 1.05264127 2.50938225 155 155 155
0.79457438 1.05264127 2.50938225 155 155 155
0.79910189 1.05264127 2.50938225 155 155 155
0.80362940 1.05264127 2.50938225 155 155 155
0.80815685 1.05264127 2.50938225 155 155 155
0.81268436 1.05264127 2.50938225 155 155 155
0.81721187 1.05264127 2.50938225 155 155 155
0.82173932 1.05264127 2.50938225 155 155 155
0.82626683 1.05264127 2.50938225 155 155 155
0.83079439 1.05264139 2.50938249 155 155 155
0.83532190 1.05264139 2.50938249 155 155 155
0.83984935 1.05264139 2.50938249 155 155 155
0.84437686 1.05264139 2.50938249 155 155 155
0.84890437 1.05264139 2.50938249 155 155 155
0.85343182 1.05264139 2.50938249 155 155 155
0.85795933 1.05264139 2.50938249 155 155 155
0.86248684 1.05264139 2.50938249 155 155 155
0.86701429 1.05264139 2.50938249 155 155 155
0.87154180 1.05264139 2.50938249 155 155 155
0.87606931 1.05264139 2.50938249 155 155 155
0.88059676 1.05264139 2.50938249 155 155 155
0.88512427 1.05264139 2.50938249 155 155 155
0.88965178 1.05264139 2.50938249 155 155 155
0.89417922 1.05264139 2.50938249 155 155 155
0.89870673 1.05264139 2.50938249 155 155 155
0.90323424 1.05264139 2.50938249 155 155 155
0.90776169 1.05264139 2.50938249 155 155 155
0.91228920 1.05264139 2.50938249 155 155 155
0.91681671 1.05264139 2.50938249 155 155 155
0.92134416 1.05264139 2.50938249 155 155 155
0.92587167 1.05264139 2.50938249 155 155 155
0.93039918 1.05264139 2.50938249 155 155 155
0.93492663 1.05264139 2.50938249 155 155 155
0.93945414 1.05264139 2.50938249 155 155 155
0.94398165 1.05264139 2.50938249 155 155 155
0.94850910 1.05264139 2.50938249 155 155 155
0.95303661 1.05264139 2.50938249 155 155 155
0.95756412 1.05264139 2.50938249 155 155 155
0.96209157 1.05264139 2.50938249 155 155 155
0.96661907 1.05264139 2.50938249 155 155 155
0.97114658 1.05264139 2.50938249 155 155 155
0.97567403 1.05264139 2.50938249 155 155 155
0.98020154 1.05264139 2.50938249 155 155 155
0.98472905 1.05264139 2.50938249 155 155 155
0.98925656 1.05264139 2.50938249 155 155 155
0.99378401 1.05264139 2.50938249 155 155 155
0.99831152 1.05264139 2.50938249 155 155 155
1.00283897 1.05264139 2.50938249 155 155 155
1.00736654 1.05264139 2.50938249 155 155 155
1.01189399 1.05264139 2.50938249 155 155 155
1.01642144 1.05264139 2.50938249 155 155 155
1.02094901 1.05264139 2.50938249 155 155 155
1.02547646 1.05264139 2.50938249 155 155 155
1.03000391 1.05264139 2.50938249 155 155 155
1.03453147 1.05264139 2.50938249 155 155 155
1.03905892 1.05264139 2.50938249 155 155 155
1.04358637 1.05264139 2.50938249 155 155 155
1.04811394 1.05264139 2.50938249 155 155 155
1.05264139 1.05264139 2.50938249 155 155 155
1.05716884 1.05264139 2.50938249 155 155 155
1.06169641 1.05264139 2.50938249 155 155 155
1.06622386 1.05264139 2.50938249 155 155 155
1.07075131 1.05264139 2.50938249 155 155 155
1.07527888 1.05264139 2.50938249 155 155 155
1.07980633 1.05264139 2.50938249 155 155 155
1.08433378 1.05264139 2.50938249 155 155 155
1.08886135 1.05264139 2.50938249 155 155 155
1.09338880 1.05264139 2.50938249 155 155 155
1.09791625 1.05264139 2.50938249 155 155 155
1.10244381 1.05264139 2.50938249 155 155 155
1.10697126 1.05264139 2.50938249 155 155 155
1.11149871 1.05264139 2.50938249 155 155 155
1.11602628 1.05264139 2.50938249 155 155 155
1.12055373 1.05264139 2.50938249 155 155 155
1.12508118 1.05264139 2.50938249 155 155 155
1.12960875 1.05264139 2.50938249 155 155 155
1.13413620 1.05264139 2.50938249 155 155 155
1.13866365 1.05264139 2.50938249 155 155 155
1.14319122 1.05264139 2.50938249 155 155 155
1.14771867 1.05264139 2.50938249 155 155 155
1.15224612 1.05264139 2.50938249 155 155 155
1.15677369 1.05264139 2.50938249 155 155 155
1.16130114 1.05264139 2.50938249 155 155 155
1.16582859 1.05264139 2.50938249 155 155 155
1.17035615 1.05264139 2.50938249 155 155 155
1.17488360 1.05264139 2.50938249 155 155 155
1.17941105 1.05264139 2.50938249 155 155 155
1.18393862 1.05264139 2.50938249 155 155 155
1.18846607 1.05264139 2.50938249 155 155 155
1.19299352 1.05264139 2.50938249 155 155 155
1.19752109 1.05264139 2.50938249 155 155 155
1.20204854 1.05264139 2.50938249 155 155 155
1.20657599 1.05264139 2.50938249 155 155 155
1.21110356 1.05264139 2.50938249 155 155 155
1.21563101 1.05264139 2.50938249 155 155 155
1.22015846 1.05264139 2.50938249 155 155 155
1.22468603 1.05264139 2.50938249 155 155 155
1.22921348 1.05264139 2.50938249 155 155 155
1.23374093 1.05264139 2.50938249 155 155 155
1.23826849 1.05264139 2.50938249 155 155 155
1.24279594 1.05264139 2.50938249 155 155 155
1.24732351 1.05264151 2.50938272 155 155 155
1.25185108 1.05264151 2.50938272 155 155 155
1.25637853 1.05264151 2.50938272 155 155 155
1.26090610 1.05264151 2.50938272 155 155 155
1.26543355 1.05264151 2.50938272 155 155 155
1.26996100 1.05264151 2.50938272 155 155 155
1.27448845 1.05264139 2.50938249 155 155 155
1.27901590 1.05264139 2.50938249 155 155 155
1.28354335 1.05264139 2.50938249 155 155 155
1.28807092 1.05264139 2.50938249 155 155 155
1.29259837 1.05264139 2.50938249 155 155 155
1.29712582 1.05264139 2.50938249 155 155 155
1.30165339 1.05264139 2.50938249 155 155 155
1.30618083 1.05264139 2.50938249 155 155 155
1.31070828 1.05264139 2.50938249 155 155 155
1.31523585 1.05264139 2.50938249 155 155 155
1.31976330 1.05264139 2.50938249 155 155 155
1.32429075 1.05264139 2.50938249 155 155 155
1.32881832 1.05264139 2.50938249 155 155 155
1.33334577 1.05264139 2.50938249 155 155 155
1.33787322 1.05264139 2.50938249 155 155 155
1.34240079 1.05264139 2.50938249 155 155 155
1.34692824 1.05264139 2.50938249 155 155 155
1.35145569 1.05264139 2.50938249 155 155 155
1.35598326 1.05264139 2.50938249 155 155 155
1.36051071 1.05264139 2.50938249 155 155 155
1.36503816 1.05264139 2.50938249 155 155 155
1.36956573 1.05264139 2.50938249 155 155 155
1.37409317 1.05264139 2.50938249 155 155 155
1.37862062 1.05264139 2.50938249 155 155 155
1.38314819 1.05264139 2.50938249 155 155 155
1.38767564 1.05264139 2.50938249 155 155 155
1.39220309 1.05264139 2.50938249 155 155 155
1.39673066 1.05264139 2.50938249 155 155 155
1.40125811 1.05264139 2.50938249 155 155 155
1.40578556 1.05264139 2.50938249 155 155 155
1.41031313 1.05264139 2.50938249 155 155 155
1.41484058 1.05264139 2.50938249 155 155 155
1.41936803 1.05264139 2.50938249 155 155 155
1.42389560 1.05264139 2.50938249 155 155 155
1.42842305 1.05264139 2.50938249 155 155 155
1.43295050 1.05264139 2.50938249 155 155 155
1.43747807 1.05264139 2.50938249 155 155 155
1.44200552 1.05264139 2.50938249 155 155 155
1.44653296 1.05264139 2.50938249 155 155 155
-1.09542024 0.80056536 1.90028739 72 72 72
-1.09247851 0.80092227 1.90113461 70 70 70
-1.08953404 0.80127937 1.90198219 75 75 75
-1.08658707 0.80163687 1.90283084 76 76 76
-1.08363736 0.80199468 1.90368009 71 71 71
-1.08068502 0.80235279 1.90453017 68 68 68
-1.07773006 0.80271125 1.90538108 69 69 69
-1.07477248 0.80307001 1.90623260 69 69 69
-1.07181227 0.80342907 1.90708494 70 70 70
-1.06884944 0.80378854 1.90793824 72 72 72
-1.06588376 0.80414820 1.90879190 69 69 69
-1.06291568 0.80450827 1.90964663 67 67 67
-1.05994475 0.80486864 1.91050196 67 67 67
-1.05697131 0.80522937 1.91135824 68 68 68
-1.05399513 0.80559039 1.91221523 68 68 68
-1.05101621 0.80595171 1.91307282 67 67 66
-1.04803479 0.80631340 1.91393137 69 69 69
-1.04505050 0.80667537 1.91479063 71 71 71
-1.04206359 0.80703765 1.91565061 69 69 69
-1.03907406 0.80740035 1.91651142 70 70 70
-1.03608179 0.80776328 1.91737294 68 68 68
-1.03308690 0.80812657 1.91823530 66 66 66
-1.03008926 0.80849022 1.91909850 65 65 65
-1.02708888 0.80885410 1.91996229 70 70 70
-1.02408588 0.80921841 1.92082703 70 70 70
-1.02108014 0.80958307 1.92169261 68 68 68
-1.01807165 0.80994797 1.92255867 68 68 68
-1.01506054 0.81031328 1.92342579 68 68 68
-1.01219940 0.81080127 1.92458415 69 69 69
-1.00933743 0.81129193 1.92574883 67 67 67
-1.00647211 0.81178325 1.92691505 65 65 65
-1.00360334 0.81227517 1.92808270 63 63 63
-1.00073111 0.81276774 1.92925191 61 61 61
-0.99785525 0.81326073 1.93042219 60 60 60
-0.99497604 0.81375444 1.93159413 59 59 59
-0.99209327 0.81424880 1.93276751 58 58 58
-0.98920691 0.81474364 1.93394208 57 57 57
-0.98631716 0.81523913 1.93511832 56 56 56
-0.98342383 0.81573522 1.93629587 56 56 56
-0.98052704 0.81623197 1.93747497 56 56 55
-0.97762662 0.81672925 1.93865526 56 56 55
-0.97472274 0.81722718 1.93983722 56 56 55
-0.97181535 0.81772572 1.94102061 55 55 55
-0.96890432 0.81822479 1.94220531 54 54 54
-0.96598965 0.81872445 1.94339132 54 54 54
-0.96307164 0.81922489 1.94457912 54 54 54
-0.96014994 0.81972581 1.94576824 55 55 55
-0.95722473 0.82022744 1.94695890 55 55 55
-0.95429587 0.82072961 1.94815087 54 54 54
-0.95136344 0.82123244 1.94934440 54 54 54
-0.94842750 0.82173586 1.95053947 54 54 54
-0.94548792 0.82223994 1.95173597 53 53 53
-0.94254458 0.82274455 1.95293367 52 52 52
-0.93959779 0.82324988 1.95413315 53 53 52
-0.93664736 0.82375580 1.95533407 53 53 52
-0.93369317 0.82426220 1.95653617 52 52 52
-0.93073547 0.82476938 1.95774007 53 53 53
-0.92777413 0.82527721 1.95894539 54 54 54
-0.92480916 0.82578564 1.96015227 54 54 54
-0.92184043 0.82629454 1.96136034 53 53 53
-0.91886812 0.82680428 1.96257019 53 53 53
-0.91589212 0.82731456 1.96378148 52 52 52
-0.91291249 0.82782549 1.96499431 52 52 52
-0.90992928 0.82833719 1.96620882 53 53 53
-0.90694213 0.82884926 1.96742439 52 52 52
-0.90395069 0.82936144 1.96864009 52 52 52
-0.90095538 0.82987410 1.96985698 60 60 59
-0.89795643 0.83038747 1.97107553 60 60 60
-0.89495373 0.83090138 1.97229540 60 60 60
-0.89194733 0.83141595 1.97351694 69 70 69
-0.90203905 0.84419286 2.00384521 79 79 79
-0.89875507 0.84450424 2.00458431 77 77 77
-0.89546871 0.84481591 2.00532413 79 79 79
-0.89217979 0.84512770 2.00606418 93 93 93
-0.88888848 0.84543979 2.00680494 91 91 91
-0.88559473 0.84575206 2.00754619 90 90 90
-0.88229853 0.84606451 2.00828791 91 91 91
-0.87900007 0.84637737 2.00903058 96 96 96
-0.87569904 0.84669036 2.00977349 93 93 92
-0.87239552 0.84700358 2.01051688 90 90 89
-0.86908960 0.84731704 2.01126099 90 90 89
-0.86578125 0.84763074 2.01200557 94 94 93
-0.86247039 0.84794462 2.01275063 93 93 93
-0.85915720 0.84825879 2.01349640 91 91 91
-0.85584134 0.84857309 2.01424241 88 88 88
-0.85252327 0.84888774 2.01498938 87 87 87
-0.84921068 0.84921068 2.01575589 90 90 90
-0.84596574 0.84960431 2.01669025 88 88 88
-0.84271777 0.84999824 2.01762533 90 90 90
-0.83946675 0.85039258 2.01856136 94 94 93
-0.83621281 0.85078734 2.01949835 96 96 95
-0.83295578 0.85118234 2.02043605 93 93 92
-0.82969582 0.85157788 2.02137494 93 93 92
-0.82643270 0.85197365 2.02231431 95 95 95
-0.82316667 0.85236990 2.02325487 93 93 92
-0.81989747 0.85276645 2.02419615 93 93 93
-0.81662536 0.85316336 2.02513838 94 94 93
-0.81335008 0.85356063 2.02608132 94 94 94
-0.81007177 0.85395831 2.02702522 96 96 96
-0.80679047 0.85435635 2.02797008 96 96 96
-0.80350602 0.85475469 2.02891564 97 97 97
-0.80021864 0.85515356 2.02986240 99 99 99
-0.79692811 0.85555273 2.03080988 97 97 96
-0.79363447 0.85595220 2.03175807 98 98 97
-0.79033774 0.85635203 2.03270721 96 96 95
-0.78703809 0.85675240 2.03365755 93 93 93
-0.78373528 0.85715306 2.03460860 95 95 95
-0.78042924 0.85755402 2.03556037 98 98 98
-0.77712023 0.85795540 2.03651309 98 98 98
-0.77380806 0.85835719 2.03746676 96 96 96
-0.77049285 0.85875934 2.03842139 99 99 99
-0.76717448 0.85916179 2.03937674 98 98 98
-0.76385307 0.85956478 2.04033327 100 100 100
-0.76052850 0.85996807 2.04129052 102 102 102
-0.75720072 0.86037165 2.04224849 98 98 98
-0.75386995 0.86077571 2.04320765 98 98 98
-0.75053608 0.86118019 2.04416776 98 98 97
-0.74719900 0.86158502 2.04512858 99 99 98
-0.74385875 0.86199015 2.04609036 102 102 101
-0.74051535 0.86239564 2.04705286 96 96 95
-0.73716885 0.86280167 2.04801655 98 98 98
-0.73381919 0.86320794 2.04898095 100 100 100
-0.73046637 0.86361462 2.04994631 101 101 101
-0.72711039 0.86402172 2.05091262 100 100 100
-0.72375125 0.86442924 2.05187988 94 94 94
-0.72038889 0.86483705 2.05284786 97 97 97
-0.71702343 0.86524534 2.05381703 101 101 101
-0.71365482 0.86565399 2.05478716 100 100 100
-0.71028292 0.86606300 2.05575800 100 100 100
-0.70690793 0.86647242 2.05672979 101 101 101
-0.70352960 0.86688215 2.05770230 101 101 101
-0.70014822 0.86729234 2.05867600 100 100 100
-0.69676352 0.86770284 2.05965042 96 96 96
-0.69337571 0.86811388 2.06062603 97 97 97
-0.68998468 0.86852515 2.06160235 99 99 99
-0.68659037 0.86893690 2.06257963 99 99 99
-0.68319291 0.86934900 2.06355786 103 103 103
-0.67979228 0.86976165 2.06453729 102 102 102
-0.67638832 0.87017453 2.06551743 101 101 101
-0.67298114 0.87058777 2.06649828 99 99 99
-0.66957074 0.87100148 2.06748033 97 97 97
-0.66615701 0.87141550 2.06846309 99 99 98
-0.66274017 0.87183005 2.06944704 100 100 100
-0.65932000 0.87224483 2.07043171 100 100 100
-0.65589660 0.87266016 2.07141757 101 101 101
-0.65246987 0.87307572 2.07240391 103 103 103
-0.64903998 0.87349182 2.07339168 102 102 102
-0.64560676 0.87390828 2.07438016 102 102 102
-0.64217025 0.87432510 2.07536960 100 100 100
-0.63873053 0.87474239 2.07635999 97 97 97
-0.63528746 0.87515998 2.07735133 97 97 96
-0.63184112 0.87557805 2.07834363 98 98 98
-0.62839150 0.87599647 2.07933688 98 98 98
-0.62493855 0.87641531 2.08033109 99 99 99
-0.62148237 0.87683469 2.08132648 102 102 102
-0.61802286 0.87725431 2.08232260 102 102 102
-0.61455995 0.87767428 2.08331943 101 101 101
-0.61109376 0.87809473 2.08431745 100 100 100
-0.60762429 0.87851560 2.08531642 100 100 100
-0.60415143 0.87893683 2.08631635 102 102 102
-0.60067528 0.87935847 2.08731723 101 101 101
-0.59719586 0.87978065 2.08831930 101 102 101
-0.59371305 0.88020313 2.08932209 98 98 98
-0.59022683 0.88062596 2.09032583 98 98 98
-0.58673733 0.88104934 2.09133077 100 100 100
-0.58324444 0.88147300 2.09233642 105 105 105
-0.57974821 0.88189709 2.09334302 99 99 99
-0.57624853 0.88232154 2.09435058 96 96 96
-0.57274562 0.88274652 2.09535933 97 97 97
-0.56923920 0.88317180 2.09636879 99 99 99
-0.56572950 0.88359755 2.09737945 103 103 103
-0.56221640 0.88402373 2.09839106 98 98 98
-0.55869985 0.88445026 2.09940338 101 101 101
-0.55517989 0.88487720 2.10041690 101 101 101
-0.55165660 0.88530457 2.10143137 97 97 97
-0.54812998 0.88573247 2.10244703 99 99 99
-0.54459983 0.88616067 2.10346341 102 102 102
-0.54106623 0.88658923 2.10448074 100 100 100
-0.53752929 0.88701832 2.10549927 101 101 100
-0.53398895 0.88744783 2.10651875 102 102 102
-0.53044516 0.88787770 2.10753918 104 104 103
-0.52689791 0.88830805 2.10856056 98 98 98
-0.52334720 0.88873875 2.10958290 101 101 100
-0.51979309 0.88916981 2.11060619 100 100 100
-0.51623547 0.88960135 2.11163044 99 99 99
-0.51267445 0.89003330 2.11265588 100 100 100
-0.50910997 0.89046574 2.11368227 105 105 105
-0.50554198 0.89089853 2.11470962 100 100 100
-0.50197053 0.89133173 2.11573792 98 98 98
-0.49839562 0.89176536 2.11676717 101 101 101
-0.49481720 0.89219940 2.11779737 104 104 104
-0.49123535 0.89263391 2.11882877 104 104 104
-0.48765004 0.89306891 2.11986136 104 104 104
-0.48406118 0.89350420 2.12089467 100 100 100
-0.48046878 0.89393991 2.12192893 100 100 100
-0.47687295 0.89437616 2.12296438 101 101 100
-0.47327358 0.89481276 2.12400079 99 99 99
-0.46967068 0.89524978 2.12503815 95 95 94
-0.46606424 0.89568722 2.12607646 96 96 96
-0.46245432 0.89612514 2.12711596 97 97 97
-0.45884085 0.89656347 2.12815642 100 100 100
-0.45522383 0.89700222 2.12919784 101 101 101
-0.45160326 0.89744139 2.13024020 101 101 101
-0.44797918 0.89788103 2.13128376 100 100 100
-0.44435152 0.89832103 2.13232827 100 100 100
-0.44072035 0.89876157 2.13337398 103 103 103
-0.43708554 0.89920241 2.13442039 100 100 100
-0.43344721 0.89964378 2.13546801 97 97 97
-0.42980528 0.90008551 2.13651657 98 98 97
-0.42615983 0.90052778 2.13756633 101 101 100
-0.42251074 0.90097040 2.13861704 99 99 99
-0.41885808 0.90141344 2.13966870 101 101 100
-0.41520178 0.90185690 2.14072132 99 100 99
-0.41154194 0.90230089 2.14177513 98 98 98
-0.40787852 0.90274531 2.14283013 99 99 99
-0.40421140 0.90319008 2.14388585 102 102 102
-0.40054074 0.90363538 2.14494276 99 99 99
-0.39686644 0.90408111 2.14600086 97 97 97
-0.39318848 0.90452719 2.14705968 97 97 97
-0.38950694 0.90497386 2.14811993 98 98 98
-0.38582173 0.90542084 2.14918089 98 98 98
-0.38213289 0.90586829 2.15024304 97 97 97
-0.37844041 0.90631628 2.15130639 98 98 98
-0.37474424 0.90676457 2.15237045 98 98 98
-0.37104443 0.90721333 2.15343571 97 97 97
-0.36734095 0.90766257 2.15450215 99 99 99
-0.36363381 0.90811229 2.15556955 97 97 97
-0.35992301 0.90856236 2.15663791 93 93 93
-0.35620850 0.90901297 2.15770745 94 94 94
-0.35249034 0.90946406 2.15877819 97 97 97
-0.34876844 0.90991545 2.15984964 99 99 98
-0.34504288 0.91036743 2.16092253 99 99 99
-0.34131363 0.91081983 2.16199636 99 99 99
-0.33758065 0.91127259 2.16307116 98 98 98
-0.33384395 0.91172588 2.16414714 98 98 98
-0.33010355 0.91217959 2.16522408 98 98 98
-0.32635942 0.91263378 2.16630220 96 96 96
-0.32261154 0.91308838 2.16738129 101 101 101
-0.31885993 0.91354352 2.16846156 98 98 98
-0.31510457 0.91399902 2.16954279 95 95 95
-0.31134546 0.91445494 2.17062497 101 101 101
-0.30758265 0.91491145 2.17170858 102 102 102
-0.30381605 0.91536832 2.17279315 97 98 97
-0.30004567 0.91582566 2.17387867 96 97 96
-0.29627153 0.91628349 2.17496538 96 96 96
-0.29249364 0.91674179 2.17605329 99 99 99
-0.28871194 0.91720051 2.17714214 99 99 99
-0.28492644 0.91765964 2.17823195 98 98 97
-0.28113720 0.91811937 2.17932320 98 98 97
-0.27734411 0.91857940 2.18041515 97 97 97
-0.27354723 0.91904002 2.18150854 95 95 94
-0.26974657 0.91950107 2.18260288 97 97 97
-0.26594204 0.91996247 2.18369818 94 94 94
-0.26213372 0.92042440 2.18479466 94 94 94
-0.25832158 0.92088687 2.18589234 96 96 95
-0.25450560 0.92134982 2.18699121 96 96 96
-0.25068581 0.92181313 2.18809104 94 94 94
-0.24686213 0.92227685 2.18919182 93 93 93
-0.24303463 0.92274123 2.19029403 93 93 93
-0.23920326 0.92320597 2.19139719 95 95 95
-0.23536804 0.92367125 2.19250154 93 93 93
-0.23152894 0.92413688 2.19360685 95 95 95
-0.22768597 0.92460304 2.19471335 96 97 96
-0.22383913 0.92506969 2.19582105 94 95 94
-0.21998842 0.92553687 2.19692993 92 92 92
-0.21613379 0.92600441 2.19803977 93 93 93
-0.21227525 0.92647237 2.19915056 98 98 98
-0.20841284 0.92694092 2.20026278 97 97 97
-0.20454651 0.92740989 2.20137596 95 95 95
-0.20067626 0.92787939 2.20249033 93 93 93
-0.19680211 0.92834932 2.20360589 97 97 96
-0.19292402 0.92881984 2.20472264 94 94 94
-0.18904202 0.92929077 2.20584059 94 94 94
-0.18515606 0.92976218 2.20695949 93 93 93
-0.18126616 0.93023401 2.20807958 94 94 94
-0.17737229 0.93070632 2.20920062 95 95 95
-0.17347451 0.93117923 2.21032310 94 94 93
-0.16957273 0.93165249 2.21144652 96 96 96
-0.16566698 0.93212628 2.21257114 100 100 100
-0.16175726 0.93260044 2.21369672 93 93 92
-0.15784355 0.93307513 2.21482348 93 93 93
-0.15392587 0.93355036 2.21595144 93 93 93
-0.15000418 0.93402606 2.21708059 92 92 92
-0.14607851 0.93450224 2.21821094 93 93 93
-0.14214884 0.93497896 2.21934247 96 96 96
-0.13821515 0.93545616 2.22047520 92 92 91
-0.13427745 0.93593383 2.22160912 83 83 83
-0.13033572 0.93641198 2.22274399 91 91 91
-0.12638995 0.93689054 2.22388005 95 95 95
-0.12244015 0.93736970 2.22501731 95 95 95
-0.11848632 0.93784928 2.22615576 94 94 94
-0.11452843 0.93832940 2.22729540 90 90 90
-0.11056649 0.93881005 2.22843623 92 92 92
-0.10660049 0.93929106 2.22957802 93 93 93
-0.10263042 0.93977267 2.23072124 92 93 92
-0.09865627 0.94025469 2.23186541 92 92 92
-0.09467806 0.94073731 2.23301101 92 92 92
-0.09069575 0.94122034 2.23415756 92 92 91
-0.08670936 0.94170398 2.23530555 94 94 94
-0.08271886 0.94218802 2.23645449 97 97 97
-0.07872426 0.94267255 2.23760462 94 94 94
-0.07472555 0.94315755 2.23875594 94 94 94
-0.07072271 0.94364309 2.23990846 92 92 92
-0.06671576 0.94412917 2.24106216 90 90 90
-0.06270468 0.94461572 2.24221706 91 91 91
-0.05868946 0.94510275 2.24337316 91 91 91
-0.05467010 0.94559032 2.24453044 93 93 93
-0.05064659 0.94607836 2.24568892 92 92 91
-0.04661893 0.94656700 2.24684882 90 90 90
-0.04258710 0.94705606 2.24800968 90 90 90
-0.03855111 0.94754559 2.24917173 92 92 92
-0.03451094 0.94803578 2.25033522 91 91 91
-0.03046658 0.94852632 2.25149965 94 94 93
-0.02641804 0.94901741 2.25266528 92 92 91
-0.02236531 0.94950897 2.25383210 92 92 91
-0.01830837 0.95000112 2.25500035 90 90 90
-0.01424723 0.95049369 2.25616956 91 91 91
-0.01018187 0.95098686 2.25734019 88 88 88
-0.00611229 0.95148057 2.25851202 91 91 91
-0.00203849 0.95197475 2.25968504 92 92 92
0.00203955 0.95246929 2.26085901 94 94 94
0.00612183 0.95296448 2.26203442 93 93 93
0.01020835 0.95346028 2.26321125 89 89 89
0.01429913 0.95395654 2.26438928 88 88 88
0.01839417 0.95445323 2.26556826 86 86 86
0.02249348 0.95495051 2.26674867 89 89 89
0.02659706 0.95544821 2.26793003 92 92 92
0.03070492 0.95594651 2.26911283 88 88 88
0.03481707 0.95644534 2.27029681 89 89 89
0.03893351 0.95694470 2.27148223 92 92 92
0.04305425 0.95744455 2.27266860 84 84 84
0.04717930 0.95794493 2.27385640 84 84 84
0.05130866 0.95844585 2.27504539 88 88 88
0.05544234 0.95894724 2.27623558 86 86 86
0.05958036 0.95944923 2.27742720 86 86 86
0.06372270 0.95995164 2.27861977 92 92 92
0.06786939 0.96045470 2.27981377 87 87 87
0.07202042 0.96095818 2.28100896 86 86 86
0.07617582 0.96146232 2.28220558 87 87 87
0.08033556 0.96196687 2.28340316 89 89 89
0.08449968 0.96247196 2.28460217 90 90 90
0.08866818 0.96297759 2.28580236 89 89 89
0.09284105 0.96348381 2.28700399 84 84 84
0.09701831 0.96399045 2.28820658 83 83 83
0.10119997 0.96449769 2.28941059 87 87 87
0.10538604 0.96500552 2.29061604 88 88 88
0.10957652 0.96551389 2.29182267 87 87 87
0.11377141 0.96602273 2.29303050 90 90 90
0.11797072 0.96653205 2.29423952 88 88 88
0.12217449 0.96704209 2.29545021 86 86 85
0.12638265 0.96755248 2.29666162 85 85 84
0.13059528 0.96806341 2.29787445 84 84 83
0.13481236 0.96857494 2.29908872 85 85 85
0.13903390 0.96908700 2.30030417 86 86 86
0.14325991 0.96959966 2.30152106 87 87 87
0.14749038 0.97011286 2.30273914 85 85 85
0.15172535 0.97062659 2.30395865 84 84 84
0.15596481 0.97114086 2.30517936 83 83 83
0.16020875 0.97165561 2.30640125 83 83 83
0.16445719 0.97217101 2.30762458 87 87 86
0.16871014 0.97268689 2.30884910 84 84 84
0.17296761 0.97320336 2.31007504 83 83 83
0.17722961 0.97372031 2.31130219 83 83 83
0.18149613 0.97423780 2.31253052 83 83 83
0.18576720 0.97475600 2.31376052 84 84 84
0.19004278 0.97527450 2.31499124 85 85 85
0.19432293 0.97579366 2.31622362 85 85 85
0.19860767 0.97631347 2.31745744 83 83 83
0.20289694 0.97683376 2.31869245 85 85 85
0.20719080 0.97735453 2.31992865 85 85 85
0.21148923 0.97787595 2.32116628 85 85 84
0.21579228 0.97839803 2.32240558 84 84 84
0.22009991 0.97892052 2.32364583 84 84 84
0.22441214 0.97944367 2.32488751 81 81 81
0.22872898 0.97996724 2.32613039 80 80 80
0.23305044 0.98049146 2.32737470 81 81 81
0.23737651 0.98101616 2.32862020 86 86 85
0.24170722 0.98154151 2.32986712 88 88 88
0.24604258 0.98206741 2.33111548 86 86 86
0.25038257 0.98259383 2.33236504 87 87 87
0.25472724 0.98312086 2.33361602 87 87 87
0.25907657 0.98364848 2.33486843 84 84 84
0.26343060 0.98417670 2.33612227 84 84 84
0.26778924 0.98470533 2.33737707 86 86 86
0.27215260 0.98523468 2.33863354 86 86 86
0.27652067 0.98576450 2.33989120 87 87 87
0.28089342 0.98629493 2.34115028 87 87 87
0.28527087 0.98682588 2.34241056 85 85 85
0.28969902 0.98751420 2.34404445 87 87 87
0.29424444 0.98857671 2.34656644 86 86 86
0.29879963 0.98964137 2.34909368 86 86 86
0.30336466 0.99070835 2.35162640 84 84 84
0.32683721 1.05264127 2.49863529 137 137 137
0.33134532 1.05264127 2.49863529 155 155 155
0.33585340 1.05264127 2.49863529 155 155 155
0.34036151 1.05264127 2.49863529 155 155 155
0.34486961 1.05264127 2.49863529 155 155 155
0.34937772 1.05264127 2.49863529 155 155 155
0.35388580 1.05264127 2.49863529 155 155 155
0.35839391 1.05264127 2.49863529 155 155 155
0.36290202 1.05264127 2.49863529 155 155 155
0.36741012 1.05264127 2.49863529 155 155 155
0.37191820 1.05264127 2.49863529 155 155 155
0.37642631 1.05264127 2.49863529 155 155 155
0.38093442 1.05264127 2.49863529 155 155 155
0.38544250 1.05264127 2.49863529 155 155 155
0.38995060 1.05264127 2.49863529 155 155 155
0.39445871 1.05264127 2.49863529 155 155 155
0.39896682 1.05264127 2.49863529 155 155 155
0.40347490 1.05264127 2.49863529 155 155 155
0.40798301 1.05264127 2.49863529 155 155 155
0.41249111 1.05264127 2.49863529 155 155 155
0.41699925 1.05264127 2.49863553 155 155 155
0.42150733 1.05264127 2.49863553 155 155 155
0.42601544 1.05264127 2.49863553 155 155 155
0.43052354 1.05264127 2.49863553 155 155 155
0.43503165 1.05264127 2.49863553 155 155 155
0.43953973 1.05264127 2.49863553 155 155 155
0.44404784 1.05264127 2.49863553 155 155 155
0.44855595 1.05264127 2.49863553 155 155 155
0.45306405 1.05264127 2.49863553 155 155 155
0.45757213 1.05264127 2.49863553 155 155 155
0.46208024 1.05264127 2.49863553 155 155 155
0.46658835 1.05264127 2.49863553 155 155 155
0.47109646 1.05264127 2.49863553 155 155 155
0.47560453 1.05264127 2.49863553 155 155 155
0.48011264 1.05264127 2.49863553 155 155 155
0.48462075 1.05264127 2.49863553 155 155 155
0.48912883 1.05264127 2.49863553 155 155 155
0.49363694 1.05264127 2.49863553 155 155 155
0.49814504 1.05264127 2.49863553 155 155 155
0.50265312 1.05264127 2.49863553 155 155 155
0.50716126 1.05264127 2.49863553 155 155 155
0.51166934 1.05264127 2.49863553 155 155 155
0.51617742 1.05264127 2.49863553 155 155 155
