//X Y Z R G B
1094
-1.15292466 1.05706942 2.95156527 155 155 155
-1.14759934 1.05706942 2.95156527 155 155 155
-1.14227402 1.05706942 2.95156527 155 155 155
-1.13694870 1.05706942 2.95156527 155 155 155
-1.13162351 1.05706942 2.95156527 155 155 155
-1.12629819 1.05706942 2.95156527 155 155 155
-1.12097287 1.05706942 2.95156527 155 155 155
-1.11564755 1.05706942 2.95156527 155 155 155
-1.11032236 1.05706942 2.95156527 155 155 155
-1.10499704 1.05706942 2.95156527 155 155 155
-1.09967172 1.05706942 2.95156527 155 155 155
-1.09434652 1.05706942 2.95156527 155 155 155
-1.08902121 1.05706942 2.95156527 155 155 155
-1.08369589 1.05706942 2.95156527 155 155 155
-1.07837057 1.05706942 2.95156527 155 155 155
-1.07304537 1.05706942 2.95156527 155 155 155
-1.06772006 1.05706942 2.95156527 155 155 155
-1.06239474 1.05706942 2.95156527 155 155 155
-1.05706942 1.05706942 2.95156527 155 155 155
-1.05174422 1.05706942 2.95156527 155 155 155
-1.04641891 1.05706942 2.95156527 155 155 155
-1.04109359 1.05706942 2.95156527 155 155 155
-1.03576827 1.05706942 2.95156527 155 155 155
-1.03044307 1.05706942 2.95156527 155 155 155
-1.02511775 1.05706942 2.95156527 155 155 155
-1.01979244 1.05706942 2.95156527 155 155 155
-1.01446712 1.05706942 2.95156527 155 155 155
-1.00914192 1.05706942 2.95156527 155 155 155
-1.00381660 1.05706942 2.95156527 155 155 155
-0.99849129 1.05706942 2.95156527 155 155 155
-0.99316603 1.05706942 2.95156527 155 155 155
-0.98784071 1.05706942 2.95156527 155 155 155
-0.98251545 1.05706942 2.95156527 155 155 155
-0.97719014 1.05706942 2.95156527 155 155 155
-0.97186488 1.05706942 2.95156527 155 155 155
-0.96653956 1.05706942 2.95156527 155 155 155
-0.96121430 1.05706942 2.95156527 155 155 155
-0.95588899 1.05706942 2.95156527 155 155 155
-0.57916194 0.64405400 1.79833734 115 115 115
-0.57572383 0.64383763 1.79773319 99 99 99
-0.57228804 0.64362139 1.79712939 97 97 97
-0.56885457 0.64340532 1.79652607 98 98 97
-0.56542343 0.64318937 1.79592311 98 98 98
-0.56199455 0.64297360 1.79532051 97 97 97
-0.55856800 0.64275795 1.79471838 95 95 95
-0.55512977 0.64252633 1.79407167 94 94 94
-0.55162084 0.64220965 1.79318738 97 97 97
-0.54811531 0.64189315 1.79230380 97 97 97
-0.54461330 0.64157706 1.79142118 94 94 94
-0.54111469 0.64126128 1.79053938 89 89 89
-0.53761953 0.64094579 1.78965855 90 90 90
-0.53412783 0.64063066 1.78877854 87 87 87
-0.53076261 0.64046431 1.78831410 85 85 85
-0.52754927 0.64048034 1.78835881 85 85 85
-0.52433580 0.64049631 1.78840351 87 87 87
-0.52112210 0.64051229 1.78844810 88 89 88
-0.51790833 0.64052838 1.78849292 89 89 88
-0.51469427 0.64054430 1.78853750 88 88 87
-0.51148015 0.64056027 1.78858209 86 86 86
-0.50826585 0.64057636 1.78862691 86 86 86
-0.50505137 0.64059234 1.78867149 88 88 88
-0.50183672 0.64060831 1.78871620 88 88 88
-0.49862191 0.64062428 1.78876078 89 89 89
-0.49540702 0.64064032 1.78880560 91 91 91
-0.49219188 0.64065629 1.78885019 89 89 89
-0.48897660 0.64067233 1.78889489 88 88 88
-0.48576120 0.64068836 1.78893971 87 87 87
-0.48254558 0.64070433 1.78898430 86 86 86
-0.47932982 0.64072037 1.78902900 87 87 87
-0.47611395 0.64073640 1.78907382 88 88 88
-0.47289783 0.64075238 1.78911841 88 88 87
-0.46968159 0.64076835 1.78916311 84 84 84
-0.46646523 0.64078444 1.78920794 85 85 85
-0.46324867 0.64080042 1.78925264 87 87 87
-0.46003193 0.64081639 1.78929722 87 87 87
-0.45681506 0.64083248 1.78934205 88 88 88
-0.45359802 0.64084846 1.78938675 87 87 87
-0.45038083 0.64086449 1.78943145 86 86 86
-0.44716349 0.64088053 1.78947628 86 86 86
-0.44394594 0.64089650 1.78952086 85 85 85
-0.44072825 0.64091253 1.78956556 85 85 85
-0.43751043 0.64092857 1.78961039 85 85 85
-0.43429241 0.64094460 1.78965509 87 87 86
-0.43107423 0.64096057 1.78969979 87 87 86
-0.42785594 0.64097661 1.78974462 83 83 82
-0.42463744 0.64099264 1.78978932 87 87 86
-0.42141879 0.64100868 1.78983402 89 89 89
-0.41819999 0.64102471 1.78987885 89 89 88
-0.41498101 0.64104074 1.78992355 83 83 83
-0.41176188 0.64105672 1.78996825 84 84 84
-0.40854260 0.64107275 1.79001307 89 89 89
-0.40532315 0.64108878 1.79005778 86 86 86
-0.40210351 0.64110482 1.79010248 84 84 84
-0.39888379 0.64112091 1.79014742 84 84 83
-0.39566383 0.64113688 1.79019213 84 84 84
-0.39244372 0.64115292 1.79023683 86 86 86
-0.38922349 0.64116895 1.79028165 87 87 87
-0.38600305 0.64118499 1.79032636 85 85 85
-0.38278246 0.64120096 1.79037106 88 88 88
-0.37956169 0.64121699 1.79041576 85 85 85
-0.37634084 0.64123309 1.79046071 81 81 81
-0.37311974 0.64124912 1.79050541 85 85 85
-0.36989853 0.64126509 1.79055011 85 85 85
-0.36667717 0.64128119 1.79059505 84 84 84
-0.36345559 0.64129722 1.79063976 85 85 85
-0.36023387 0.64131325 1.79068446 85 85 85
-0.35701203 0.64132935 1.79072940 83 83 83
-0.35378999 0.64134532 1.79077411 82 82 81
-0.35056779 0.64136136 1.79081881 83 83 82
-0.34734547 0.64137745 1.79086375 86 86 86
-0.34412295 0.64139348 1.79090858 88 88 88
-0.34090027 0.64140952 1.79095328 85 85 85
-0.33767745 0.64142561 1.79099822 83 84 83
-0.33445445 0.64144158 1.79104292 82 83 82
-0.33123127 0.64145762 1.79108763 82 82 82
-0.32800797 0.64147371 1.79113257 86 86 86
-0.32478449 0.64148974 1.79117739 85 85 85
-0.32156083 0.64150578 1.79122210 80 80 80
-0.31833705 0.64152187 1.79126704 84 84 84
-0.31511307 0.64153790 1.79131174 84 84 84
-0.31188893 0.64155394 1.79135656 83 83 83
-0.30866468 0.64157003 1.79140151 81 81 81
-0.30544022 0.64158607 1.79144621 82 82 82
-0.30221561 0.64160210 1.79149103 84 84 83
-0.29899085 0.64161819 1.79153597 88 88 88
-0.29576591 0.64163423 1.79158080 86 86 86
-0.29254079 0.64165026 1.79162550 85 85 85
-0.28931555 0.64166635 1.79167044 85 85 84
-0.28609014 0.64168239 1.79171526 88 88 88
-0.28286454 0.64169842 1.79175997 87 87 87
-0.27963883 0.64171457 1.79180503 85 85 85
-0.27641290 0.64173055 1.79184973 83 83 83
-0.27318683 0.64174658 1.79189456 84 84 84
-0.26996064 0.64176273 1.79193950 86 86 86
-0.26673424 0.64177877 1.79198432 87 87 87
-0.26350769 0.64179480 1.79202914 89 90 89
-0.26028097 0.64181083 1.79207385 90 90 90
-0.25705412 0.64182699 1.79211891 89 89 88
-0.25382710 0.64184302 1.79216373 82 82 82
-0.25059986 0.64185899 1.79220843 82 82 82
-0.24737254 0.64187515 1.79225349 82 82 82
-0.24414502 0.64189124 1.79229832 81 81 81
-0.24091734 0.64190727 1.79234314 82 82 82
-0.23768951 0.64192337 1.79238808 84 84 84
-0.23446150 0.64193940 1.79243290 87 87 87
-0.23123333 0.64195549 1.79247773 85 85 85
-0.22800501 0.64197159 1.79252267 86 86 86
-0.22477652 0.64198762 1.79256749 88 88 88
-0.22154787 0.64200366 1.79261231 85 85 85
-0.21831907 0.64201981 1.79265738 85 85 85
-0.21509010 0.64203584 1.79270220 86 86 86
-0.21186095 0.64205194 1.79274702 86 86 86
-0.20863168 0.64206803 1.79279208 86 86 86
-0.20540223 0.64208412 1.79283690 85 85 85
-0.20217259 0.64210016 1.79288173 84 84 84
-0.19894283 0.64211625 1.79292667 83 83 83
-0.19571286 0.64213228 1.79297149 84 84 84
-0.19248277 0.64214838 1.79301643 86 86 86
-0.18925251 0.64216447 1.79306138 85 85 85
-0.18602209 0.64218056 1.79310632 85 85 85
-0.18279149 0.64219666 1.79315114 85 85 85
-0.17956075 0.64221281 1.79319620 83 83 83
-0.17632984 0.64222884 1.79324102 84 84 84
-0.17309874 0.64224488 1.79328585 83 83 83
-0.16986753 0.64226103 1.79333091 82 82 82
-0.16663612 0.64227706 1.79337573 86 86 86
-0.16340455 0.64229316 1.79342055 85 85 85
-0.16017283 0.64230925 1.79346550 82 82 82
-0.15694094 0.64232528 1.79351032 82 82 82
-0.15370889 0.64234138 1.79355526 83 83 83
-0.15047669 0.64235753 1.79360032 83 83 83
-0.14724432 0.64237356 1.79364514 82 82 82
-0.14401178 0.64238960 1.79368997 84 84 84
-0.14077909 0.64240575 1.79373503 84 84 83
-0.13754624 0.64242184 1.79377997 83 83 82
-0.13431321 0.64243788 1.79382479 80 80 80
-0.13108005 0.64245403 1.79386985 81 81 81
-0.12784670 0.64247012 1.79391479 83 83 83
-0.12461319 0.64248621 1.79395962 85 85 85
-0.12137954 0.64250237 1.79400480 87 87 87
-0.11814570 0.64251840 1.79404962 87 87 87
-0.11491171 0.64253449 1.79409456 85 85 85
-0.11167757 0.64255065 1.79413962 85 85 85
-0.10844325 0.64256674 1.79418457 86 86 86
-0.10520877 0.64258277 1.79422939 85 85 85
-0.10197414 0.64259899 1.79427457 84 84 84
-0.09873934 0.64261502 1.79431939 85 85 85
-0.09550437 0.64263111 1.79436433 86 86 86
-0.09226926 0.64264727 1.79440939 85 85 85
-0.08903397 0.64266336 1.79445434 84 84 84
-0.08579852 0.64267945 1.79449928 84 84 84
-0.08256291 0.64269561 1.79454434 84 84 83
-0.07932714 0.64271170 1.79458928 81 81 81
-0.07609120 0.64272779 1.79463422 82 82 82
-0.07285511 0.64274395 1.79467928 83 83 82
-0.06961884 0.64276004 1.79472423 83 83 83
-0.06638242 0.64277613 1.79476917 81 81 80
-0.06314583 0.64279222 1.79481411 80 80 79
-0.05990909 0.64280838 1.79485917 80 80 80
-0.05667218 0.64282447 1.79490411 81 81 81
-0.05343511 0.64284056 1.79494905 80 80 80
-0.05019788 0.64285672 1.79499424 81 81 81
-0.04696048 0.64287281 1.79503918 85 85 85
-0.04372292 0.64288890 1.79508412 84 84 84
-0.04048520 0.64290506 1.79512918 81 81 81
-0.03724732 0.64292115 1.79517412 79 79 79
-0.03400927 0.64293724 1.79521906 80 80 80
-0.03077107 0.64295346 1.79526424 81 81 81
-0.02753270 0.64296955 1.79530919 82 82 82
-0.02429417 0.64298564 1.79535413 82 82 82
-0.02105547 0.64300179 1.79539931 83 83 83
-0.01781662 0.64301789 1.79544425 82 82 82
-0.01457760 0.64303398 1.79548919 81 81 81
-0.01133842 0.64305019 1.79553437 83 83 82
-0.00809907 0.64306629 1.79557931 84 84 84
-0.00485956 0.64308238 1.79562438 84 84 84
-0.00161990 0.64309847 1.79566932 84 84 84
0.00161994 0.64311469 1.79571450 83 83 83
0.00485993 0.64313078 1.79575944 81 81 81
0.00810009 0.64314687 1.79580438 81 81 81
0.01134041 0.64316303 1.79584956 81 81 81
0.01458089 0.64317918 1.79589462 81 81 81
0.01782153 0.64319527 1.79593956 82 82 82
0.02106234 0.64321148 1.79598475 84 84 84
0.02430331 0.64322758 1.79602969 82 82 82
0.02754444 0.64324367 1.79607475 80 80 79
0.03078574 0.64325988 1.79611993 82 82 82
0.03402719 0.64327598 1.79616487 81 81 80
0.03726881 0.64329213 1.79620993 80 80 80
0.04051060 0.64330828 1.79625511 82 82 82
0.04375254 0.64332438 1.79630005 83 83 83
0.04699465 0.64334053 1.79634511 82 82 82
0.05023692 0.64335668 1.79639030 82 82 81
0.05347935 0.64337283 1.79643536 82 82 81
0.05672195 0.64338893 1.79648030 81 81 81
0.05996471 0.64340514 1.79652560 83 83 83
0.06320763 0.64342123 1.79657054 89 89 89
0.06645072 0.64343739 1.79661560 83 83 83
0.06969397 0.64345360 1.79666078 81 81 81
0.07293738 0.64346969 1.79670584 81 81 81
0.07618094 0.64348578 1.79675078 79 79 78
0.07942469 0.64350206 1.79679608 80 80 80
0.08266858 0.64351815 1.79684114 82 82 82
0.08591264 0.64353424 1.79688609 82 82 82
0.08915687 0.64355052 1.79693139 84 84 84
0.09240125 0.64356661 1.79697645 84 84 84
0.09564579 0.64358270 1.79702139 79 79 79
0.09889052 0.64359897 1.79706669 82 82 82
0.10213539 0.64361507 1.79711175 82 82 82
0.10538043 0.64363122 1.79715681 80 80 80
0.10862564 0.64364743 1.79720199 81 81 81
0.11187100 0.64366353 1.79724705 83 83 83
0.11511651 0.64367968 1.79729211 83 83 83
0.11836221 0.64369589 1.79733729 83 83 82
0.12160806 0.64371198 1.79738235 82 82 82
0.12485407 0.64372814 1.79742742 80 80 80
0.12810026 0.64374435 1.79747272 78 78 78
0.13134660 0.64376050 1.79751778 78 78 78
0.13459310 0.64377666 1.79756284 79 79 79
0.13783978 0.64379287 1.79760814 80 80 80
0.14108661 0.64380902 1.79765320 81 81 81
0.14433360 0.64382511 1.79769826 84 84 83
0.14758077 0.64384139 1.79774356 84 84 84
0.15082808 0.64385748 1.79778862 83 83 83
0.15407556 0.64387363 1.79783368 82 82 82
0.15732321 0.64388984 1.79787898 80 80 80
0.16057102 0.64390600 1.79792404 79 79 79
0.16381899 0.64392215 1.79796910 81 81 81
0.16706713 0.64393836 1.79801440 81 81 80
0.17031543 0.64395452 1.79805946 81 81 80
0.17356388 0.64397067 1.79810464 82 82 81
0.17681251 0.64398688 1.79814982 82 82 82
0.18006131 0.64400303 1.79819500 79 79 79
0.18331024 0.64401919 1.79824007 76 76 76
0.18655935 0.64403534 1.79828513 79 79 79
0.18980864 0.64405155 1.79833043 83 83 83
0.19305809 0.64406770 1.79837561 85 85 85
0.19630767 0.64408386 1.79842067 83 83 83
0.19955745 0.64410007 1.79846597 82 82 81
0.20280738 0.64411628 1.79851115 81 81 81
0.20605747 0.64413238 1.79855621 81 81 81
0.20930775 0.64414865 1.79860151 81 81 81
0.21255817 0.64416480 1.79864669 80 80 80
0.21580873 0.64418095 1.79869175 79 79 79
0.21905950 0.64419717 1.79873705 82 82 82
0.22231039 0.64421338 1.79878223 80 80 79
0.22556147 0.64422953 1.79882741 79 79 79
0.22881272 0.64424574 1.79887271 81 81 81
0.23206411 0.64426190 1.79891777 81 81 81
0.23531567 0.64427805 1.79896295 80 80 80
0.23856741 0.64429432 1.79900825 79 79 79
0.24181929 0.64431047 1.79905343 80 80 80
0.24507135 0.64432669 1.79909861 81 81 81
0.24832357 0.64434290 1.79914391 81 81 81
0.25157595 0.64435905 1.79918909 81 81 81
0.25482848 0.64437521 1.79923415 80 80 80
0.25808123 0.64439148 1.79927957 80 80 80
0.26133409 0.64440763 1.79932475 81 81 80
0.26458710 0.64442378 1.79936981 80 80 79
0.26784033 0.64444005 1.79941523 81 81 81
0.27109367 0.64445621 1.79946041 82 82 82
0.27434719 0.64447242 1.79950559 79 79 79
0.27760091 0.64448863 1.79955089 79 79 78
0.28085473 0.64450485 1.79959607 79 79 79
0.28410876 0.64452100 1.79964125 79 80 79
0.28736293 0.64453721 1.79968655 78 78 78
0.29061729 0.64455342 1.79973173 79 79 79
0.29387179 0.64456958 1.79977691 80 80 80
0.29712647 0.64458585 1.79982233 77 77 77
0.30038130 0.64460206 1.79986751 78 78 77
0.30363628 0.64461821 1.79991269 79 79 78
0.30689147 0.64463449 1.79995811 79 79 79
0.31014678 0.64465064 1.80000329 80 80 79
0.31340227 0.64466685 1.80004847 80 80 80
0.31665796 0.64468312 1.80009389 80 80 80
0.31991374 0.64469928 1.80013907 80 80 80
0.32316971 0.64471549 1.80018425 78 78 78
0.32642588 0.64473176 1.80022967 78 78 77
0.32968217 0.64474791 1.80027485 81 81 80
0.33293864 0.64476413 1.80032003 78 78 77
0.33619529 0.64478034 1.80036545 78 78 78
0.33945209 0.64479655 1.80041063 80 80 80
0.34270903 0.64481270 1.80045581 80 80 80
0.34596619 0.64482898 1.80050123 80 80 80
0.34922346 0.64484519 1.80054653 78 78 78
0.35248092 0.64486140 1.80059171 77 77 77
0.35573855 0.64487767 1.80063713 76 76 76
0.35899633 0.64489383 1.80068231 77 77 77
0.36225426 0.64491004 1.80072761 79 79 78
0.36554852 0.64499003 1.80095088 78 78 78
0.36899680 0.64533800 1.80192256 78 78 78
0.37244886 0.64568645 1.80289543 76 76 76
0.37590465 0.64603525 1.80386937 72 72 72
0.37936413 0.64638442 1.80484426 70 70 70
0.38282740 0.64673394 1.80582023 69 69 69
0.38629439 0.64708382 1.80679727 67 67 67
0.38974810 0.64740586 1.80769634 65 65 65
0.39316145 0.64765596 1.80839479 62 62 62
0.39657745 0.64790636 1.80909395 59 59 59
0.39999607 0.64815688 1.80979347 58 58 58
0.40341732 0.64840758 1.81049347 57 57 57
0.40684125 0.64865857 1.81119418 55 55 55
0.41026783 0.64890969 1.81189537 56 56 55
0.67364895 1.05706966 2.95156598 153 153 153
0.67897427 1.05706966 2.95156598 153 153 153
0.68429953 1.05706966 2.95156598 153 153 153
0.68962485 1.05706966 2.95156598 153 153 153
0.69495010 1.05706966 2.95156598 153 153 153
0.70027542 1.05706966 2.95156598 153 153 153
0.70560068 1.05706966 2.95156598 153 153 153
0.71092600 1.05706966 2.95156598 153 153 153
0.71625125 1.05706966 2.95156598 153 153 153
0.72157657 1.05706966 2.95156598 153 153 153
0.72690183 1.05706966 2.95156598 153 153 153
0.73222715 1.05706966 2.95156598 153 153 153
0.73755240 1.05706966 2.95156598 153 153 153
0.74287772 1.05706966 2.95156598 153 153 153
0.74820298 1.05706966 2.95156598 153 153 153
0.75352830 1.05706966 2.95156598 153 153 153
0.75885355 1.05706966 2.95156598 153 153 153
0.76417887 1.05706966 2.95156598 153 153 153
0.76950413 1.05706966 2.95156598 153 153 153
0.77482945 1.05706966 2.95156598 153 153 153
0.78015471 1.05706966 2.95156598 153 153 153
0.78548002 1.05706966 2.95156598 154 154 154
0.79080528 1.05706966 2.95156598 155 155 155
0.79613060 1.05706966 2.95156598 155 155 155
0.80145586 1.05706966 2.95156598 155 155 155
0.80678117 1.05706966 2.95156598 155 155 155
0.81210643 1.05706966 2.95156598 155 155 155
0.81743175 1.05706966 2.95156598 155 155 155
0.82275701 1.05706966 2.95156598 155 155 155
0.82808232 1.05706966 2.95156598 155 155 155
0.83340758 1.05706966 2.95156598 155 155 155
0.83873290 1.05706966 2.95156598 155 155 155
0.84405816 1.05706966 2.95156598 155 155 155
0.84938347 1.05706966 2.95156598 155 155 155
0.85470873 1.05706966 2.95156598 155 155 155
0.86003411 1.05706978 2.95156622 155 155 155
0.86535943 1.05706978 2.95156622 155 155 155
0.87068468 1.05706978 2.95156622 155 155 155
0.87601000 1.05706978 2.95156622 155 155 155
0.88133526 1.05706978 2.95156622 155 155 155
0.88666058 1.05706978 2.95156622 155 155 155
0.89198583 1.05706978 2.95156622 155 155 155
0.89731115 1.05706978 2.95156622 155 155 155
0.90263641 1.05706978 2.95156622 155 155 155
0.90796173 1.05706978 2.95156622 155 155 155
0.91328698 1.05706978 2.95156622 155 155 155
0.91861230 1.05706978 2.95156622 155 155 155
0.92393756 1.05706978 2.95156622 155 155 155
0.92926288 1.05706978 2.95156622 155 155 155
0.93458813 1.05706978 2.95156622 155 155 155
0.93991345 1.05706978 2.95156622 155 155 155
0.94523871 1.05706978 2.95156622 155 155 155
0.95056403 1.05706978 2.95156622 155 155 155
0.95588928 1.05706978 2.95156622 155 155 155
0.96121460 1.05706978 2.95156622 155 155 155
0.96653992 1.05706978 2.95156622 155 155 155
0.97186518 1.05706978 2.95156622 155 155 155
0.97719049 1.05706978 2.95156622 155 155 155
0.98251575 1.05706978 2.95156622 155 155 155
0.98784107 1.05706978 2.95156622 155 155 155
0.99316633 1.05706978 2.95156622 155 155 155
0.99849164 1.05706978 2.95156622 155 155 155
1.00381696 1.05706978 2.95156622 155 155 155
1.00914216 1.05706978 2.95156622 155 155 155
1.01446748 1.05706978 2.95156622 155 155 155
1.01979280 1.05706978 2.95156622 155 155 155
1.02511811 1.05706978 2.95156622 155 155 155
1.03044343 1.05706990 2.95156646 155 155 155
1.03576875 1.05706990 2.95156646 155 155 155
1.04109406 1.05706990 2.95156646 155 155 155
1.04641926 1.05706990 2.95156646 155 155 155
1.05174458 1.05706990 2.95156646 155 155 155
1.05706990 1.05706990 2.95156646 155 155 155
1.06239522 1.05706990 2.95156646 155 155 155
1.06772041 1.05706990 2.95156646 155 155 155
1.07304573 1.05706990 2.95156646 155 155 155
1.07837105 1.05706990 2.95156646 155 155 155
1.08369637 1.05706990 2.95156646 155 155 155
1.08902156 1.05706990 2.95156646 155 155 155
1.09434688 1.05706990 2.95156646 155 155 155
1.09967220 1.05706990 2.95156646 155 155 155
1.10499752 1.05706990 2.95156646 155 155 155
1.11032283 1.05706990 2.95156646 155 155 155
1.11564803 1.05706990 2.95156646 155 155 155
1.12097335 1.05706990 2.95156646 155 155 155
1.12629867 1.05706990 2.95156646 155 155 155
1.13162398 1.05706990 2.95156646 155 155 155
1.13694918 1.05706990 2.95156646 155 155 155
1.14227450 1.05706990 2.95156646 155 155 155
1.14759982 1.05706990 2.95156646 155 155 155
1.15292513 1.05706990 2.95156646 155 155 155
1.15825033 1.05706990 2.95156646 155 155 155
1.16357565 1.05706990 2.95156646 155 155 155
1.16890097 1.05706990 2.95156646 155 155 155
1.17422628 1.05706990 2.95156646 155 155 155
1.17955148 1.05706990 2.95156646 155 155 155
1.18487680 1.05706990 2.95156646 155 155 155
1.19020212 1.05706990 2.95156646 155 155 155
1.19552743 1.05706990 2.95156646 155 155 155
1.20085263 1.05706990 2.95156646 155 155 155
1.20617795 1.05706990 2.95156646 155 155 155
1.21150327 1.05706990 2.95156646 155 155 155
1.21682858 1.05706990 2.95156646 155 155 155
1.22215390 1.05706990 2.95156646 155 155 155
1.22747910 1.05706990 2.95156646 155 155 155
1.23280442 1.05706990 2.95156646 155 155 155
1.23812973 1.05706990 2.95156646 155 155 155
1.24345505 1.05706990 2.95156646 155 155 155
1.24878025 1.05706990 2.95156646 155 155 155
1.25410557 1.05706990 2.95156646 155 155 155
1.25943089 1.05706990 2.95156646 155 155 155
1.26475620 1.05706990 2.95156646 155 155 155
1.27008140 1.05706990 2.95156646 155 155 155
1.27540672 1.05706990 2.95156646 155 155 155
1.28073204 1.05706990 2.95156646 155 155 155
1.28605735 1.05706990 2.95156646 155 155 155
1.29138255 1.05706990 2.95156646 155 155 155
1.29670787 1.05706990 2.95156646 155 155 155
1.30203319 1.05706990 2.95156646 155 155 155
1.30735850 1.05706990 2.95156646 155 155 155
1.31268370 1.05706990 2.95156646 155 155 155
1.31800902 1.05706990 2.95156646 155 155 155
1.32333434 1.05706990 2.95156646 155 155 155
1.32865965 1.05706990 2.95156646 155 155 155
1.33398497 1.05706990 2.95156646 155 155 155
1.33931017 1.05706990 2.95156646 155 155 155
1.34463549 1.05706990 2.95156646 155 155 155
1.34996080 1.05706990 2.95156646 155 155 155
1.35528612 1.05706990 2.95156646 155 155 155
1.36061132 1.05706990 2.95156646 155 155 155
1.36593664 1.05706990 2.95156646 155 155 155
1.37126195 1.05706990 2.95156646 155 155 155
1.37658727 1.05706990 2.95156646 155 155 155
1.38191247 1.05706990 2.95156646 155 155 155
1.38723779 1.05706990 2.95156646 155 155 155
1.39256310 1.05706990 2.95156646 155 155 155
1.39788842 1.05706990 2.95156646 155 155 155
1.40321362 1.05706990 2.95156646 155 155 155
1.40853894 1.05706990 2.95156646 155 155 155
1.41386425 1.05706990 2.95156646 155 155 155
1.41918957 1.05706990 2.95156646 155 155 155
1.42451489 1.05706990 2.95156646 155 155 155
1.42984009 1.05706990 2.95156646 155 155 155
1.43516541 1.05706990 2.95156646 155 155 155
1.44049072 1.05706990 2.95156646 155 155 155
1.44581616 1.05707002 2.95156670 155 155 155
1.45114136 1.05707002 2.95156670 155 155 155
1.45646667 1.05707002 2.95156670 155 155 155
1.46179199 1.05707002 2.95156670 155 155 155
1.46711731 1.05707002 2.95156670 155 155 155
1.47244251 1.05707002 2.95156670 155 155 155
1.47776783 1.05707002 2.95156670 155 155 155
1.48309314 1.05707002 2.95156670 155 155 155
1.48841846 1.05707002 2.95156670 155 155 155
1.49374366 1.05707002 2.95156670 155 155 155
1.49906898 1.05707002 2.95156670 155 155 155
1.50439429 1.05707002 2.95156670 155 155 155
1.50971961 1.05707002 2.95156670 155 155 155
1.51504481 1.05707002 2.95156670 155 155 155
1.52037013 1.05707002 2.95156670 155 155 155
1.52569544 1.05707002 2.95156670 155 155 155
1.53102076 1.05707002 2.95156670 155 155 155
1.53634608 1.05707002 2.95156670 155 155 155
1.54167128 1.05707002 2.95156670 155 155 155
1.54699659 1.05707002 2.95156670 155 155 155
1.55232191 1.05707002 2.95156670 155 155 155
1.55764723 1.05707002 2.95156670 155 155 155
1.56297243 1.05707002 2.95156670 155 155 155
1.56829774 1.05707002 2.95156670 155 155 155
1.57362306 1.05707002 2.95156670 155 155 155
1.57894838 1.05707002 2.95156670 155 155 155
1.58427358 1.05707002 2.95156670 155 155 155
1.58959889 1.05707002 2.95156670 155 155 155
1.59492421 1.05707002 2.95156670 155 155 155
1.60024953 1.05707002 2.95156670 155 155 155
1.60557485 1.05707002 2.95156670 155 155 155
1.61090004 1.05707002 2.95156670 155 155 155
1.61622536 1.05707002 2.95156670 155 155 155
1.62155068 1.05707002 2.95156670 155 155 155
1.62687600 1.05707002 2.95156670 155 155 155
1.63220119 1.05707002 2.95156670 155 155 155
1.63752651 1.05707002 2.95156670 155 155 155
1.64285183 1.05707002 2.95156670 155 155 155
1.64817715 1.05707002 2.95156670 155 155 155
1.65350235 1.05707002 2.95156670 155 155 155
1.65882766 1.05707002 2.95156670 155 155 155
1.66415298 1.05707002 2.95156670 155 155 155
1.66947830 1.05707002 2.95156670 155 155 155
1.67480350 1.05707002 2.95156670 155 155 155
1.68012881 1.05707002 2.95156670 155 155 155
1.68545413 1.05707002 2.95156670 155 155 155
1.69077945 1.05707002 2.95156670 155 155 155
1.69610476 1.05707002 2.95156670 155 155 155
1.70142996 1.05707002 2.95156670 155 155 155
-1.69290066 1.05706942 2.93677044 155 155 155
-1.68760216 1.05706942 2.93677044 155 155 155
-1.68230355 1.05706942 2.93677044 155 155 155
-1.67700493 1.05706942 2.93677044 155 155 155
-1.67170632 1.05706942 2.93677044 155 155 155
-1.66640770 1.05706942 2.93677044 155 155 155
-1.66110909 1.05706942 2.93677044 155 155 155
-1.65581059 1.05706942 2.93677044 155 155 155
-1.65051198 1.05706942 2.93677044 155 155 155
-1.64521337 1.05706942 2.93677044 155 155 155
-1.63991475 1.05706942 2.93677044 155 155 155
-1.63461614 1.05706942 2.93677044 155 155 155
-1.62931752 1.05706942 2.93677044 155 155 155
-1.62401903 1.05706942 2.93677044 155 155 155
-1.61872041 1.05706942 2.93677044 155 155 155
-1.61342180 1.05706942 2.93677044 155 155 155
-1.60812318 1.05706942 2.93677044 155 155 155
-1.60282457 1.05706942 2.93677044 155 155 155
-1.59752595 1.05706942 2.93677044 155 155 155
-1.59222746 1.05706942 2.93677044 155 155 155
-1.58692884 1.05706942 2.93677044 155 155 155
-1.58163023 1.05706942 2.93677044 155 155 155
-1.57633162 1.05706942 2.93677044 155 155 155
-1.57103300 1.05706942 2.93677044 155 155 155
-1.56573451 1.05706942 2.93677044 155 155 155
-1.56043589 1.05706942 2.93677044 155 155 155
-1.55513728 1.05706942 2.93677044 155 155 155
-1.54983866 1.05706942 2.93677044 155 155 155
-1.54454005 1.05706942 2.93677044 155 155 155
-1.53924143 1.05706942 2.93677044 155 155 155
-1.53394294 1.05706942 2.93677044 155 155 155
-1.52864432 1.05706942 2.93677044 155 155 155
-1.52334571 1.05706942 2.93677044 155 155 155
-1.51804709 1.05706942 2.93677044 155 155 155
-1.51274848 1.05706942 2.93677044 155 155 155
-1.50744987 1.05706942 2.93677044 155 155 155
-1.50215137 1.05706942 2.93677044 155 155 155
-1.49685276 1.05706942 2.93677044 155 155 155
-1.49155414 1.05706942 2.93677044 155 155 155
-1.48625553 1.05706942 2.93677044 155 155 155
-1.48095691 1.05706942 2.93677044 155 155 155
-1.47565842 1.05706942 2.93677044 155 155 155
-1.47035980 1.05706942 2.93677044 155 155 155
-1.46506119 1.05706942 2.93677044 155 155 155
-1.45976257 1.05706942 2.93677044 155 155 155
-1.45446396 1.05706942 2.93677044 155 155 155
-1.44916534 1.05706942 2.93677044 155 155 155
-1.44386685 1.05706942 2.93677044 155 155 155
-1.43856823 1.05706942 2.93677044 155 155 155
-1.43326962 1.05706942 2.93677044 155 155 155
-1.42797101 1.05706942 2.93677044 155 155 155
-1.42267239 1.05706942 2.93677044 155 155 155
-1.41737378 1.05706942 2.93677044 155 155 155
-1.41207528 1.05706942 2.93677044 155 155 155
-1.40677667 1.05706942 2.93677044 155 155 155
-1.40147805 1.05706942 2.93677044 155 155 155
-1.39617944 1.05706942 2.93677044 155 155 155
-1.39088082 1.05706942 2.93677044 155 155 155
-1.38558221 1.05706942 2.93677044 155 155 155
-1.38028371 1.05706942 2.93677044 155 155 155
-1.37498510 1.05706942 2.93677044 155 155 155
-1.36968648 1.05706942 2.93677044 155 155 155
-1.36438787 1.05706942 2.93677044 155 155 155
-1.35908926 1.05706942 2.93677044 155 155 155
-1.35379076 1.05706942 2.93677044 155 155 155
-1.34849215 1.05706942 2.93677044 155 155 155
-1.34319353 1.05706942 2.93677044 155 155 155
-1.33789492 1.05706942 2.93677044 155 155 155
-1.33259630 1.05706942 2.93677044 155 155 155
-1.32729769 1.05706942 2.93677044 155 155 155
-1.32199919 1.05706942 2.93677044 155 155 155
-1.31670058 1.05706942 2.93677044 155 155 155
-1.31140196 1.05706942 2.93677044 155 155 155
-1.30610335 1.05706942 2.93677044 155 155 155
-1.30080473 1.05706942 2.93677044 155 155 155
-1.29550612 1.05706942 2.93677044 155 155 155
-1.29020762 1.05706942 2.93677044 155 155 155
-1.28490901 1.05706942 2.93677044 155 155 155
-1.27961040 1.05706942 2.93677044 155 155 155
-1.27431178 1.05706942 2.93677044 155 155 155
-1.26901317 1.05706942 2.93677044 155 155 155
-1.26371455 1.05706942 2.93677044 155 155 155
-1.25841606 1.05706942 2.93677044 155 155 155
-1.25311744 1.05706942 2.93677044 155 155 155
-1.24781883 1.05706942 2.93677044 155 155 155
-1.24252021 1.05706942 2.93677044 155 155 155
-1.23722160 1.05706942 2.93677044 155 155 155
-1.23192310 1.05706942 2.93677044 155 155 155
-1.22662449 1.05706942 2.93677044 155 155 155
-1.22132587 1.05706942 2.93677044 155 155 155
-1.21602726 1.05706942 2.93677044 155 155 155
-1.21072865 1.05706942 2.93677044 155 155 155
-1.20543003 1.05706942 2.93677044 155 155 155
-1.20013154 1.05706942 2.93677044 155 155 155
-1.19483292 1.05706942 2.93677044 155 155 155
-1.18953431 1.05706942 2.93677044 155 155 155
-1.18423569 1.05706942 2.93677044 155 155 155
-1.17893708 1.05706942 2.93677044 155 155 155
-1.17363846 1.05706942 2.93677044 155 155 155
-1.16833997 1.05706942 2.93677044 155 155 155
-1.16304135 1.05706942 2.93677044 155 155 155
-1.15774274 1.05706942 2.93677044 155 155 155
-1.15244412 1.05706942 2.93677044 155 155 155
-1.14714551 1.05706942 2.93677044 155 155 155
-1.14184690 1.05706942 2.93677044 155 155 155
-1.13654840 1.05706942 2.93677044 155 155 155
-1.13124979 1.05706942 2.93677044 155 155 155
-1.12595117 1.05706942 2.93677044 155 155 155
-1.12065256 1.05706942 2.93677044 155 155 155
-1.11535394 1.05706942 2.93677044 155 155 155
-1.11005545 1.05706942 2.93677044 155 155 155
-1.10475683 1.05706942 2.93677044 155 155 155
-1.09945822 1.05706942 2.93677044 155 155 155
-1.09415960 1.05706942 2.93677044 155 155 155
-1.08886099 1.05706942 2.93677044 155 155 155
-1.08356237 1.05706942 2.93677044 155 155 155
-1.07826388 1.05706942 2.93677044 155 155 155
-1.07296526 1.05706942 2.93677044 155 155 155
-1.06766665 1.05706942 2.93677044 155 155 155
-1.06236804 1.05706942 2.93677044 155 155 155
-1.05706942 1.05706942 2.93677044 155 155 155
-1.05177081 1.05706942 2.93677044 155 155 155
-1.04647231 1.05706942 2.93677044 155 155 155
-1.04117370 1.05706942 2.93677044 155 155 155
-1.03587508 1.05706942 2.93677044 155 155 155
-1.03057647 1.05706942 2.93677044 155 155 155
-1.02527785 1.05706942 2.93677044 155 155 155
-1.01997924 1.05706942 2.93677044 155 155 155
-1.01468074 1.05706942 2.93677044 155 155 155
-1.00938213 1.05706942 2.93677044 155 155 155
-1.00408351 1.05706942 2.93677044 155 155 155
-0.99878490 1.05706942 2.93677044 155 155 155
-0.99348634 1.05706942 2.93677044 155 155 155
-0.98818773 1.05706942 2.93677044 155 155 155
-0.98288912 1.05706942 2.93677044 155 155 155
-0.97759056 1.05706942 2.93677044 155 155 155
-0.97229195 1.05706942 2.93677044 155 155 155
-0.96699333 1.05706942 2.93677044 155 155 155
-0.96169478 1.05706942 2.93677044 155 155 155
-0.95639616 1.05706942 2.93677044 155 155 155
-0.95109755 1.05706942 2.93677044 155 155 155
-0.57917261 0.64731055 1.79837048 116 116 116
-0.57573444 0.64709312 1.79776633 100 100 100
-0.57229865 0.64687580 1.79716265 97 97 97
-0.56886512 0.64665866 1.79655933 97 97 97
-0.56543392 0.64644164 1.79595637 98 98 98
-0.56200492 0.64622474 1.79535377 98 98 98
-0.55857831 0.64600796 1.79475164 97 97 96
-0.55512977 0.64576322 1.79407167 96 96 95
-0.55162084 0.64544493 1.79318738 95 95 95
-0.54811531 0.64512688 1.79230380 95 95 95
-0.54461330 0.64480919 1.79142118 93 93 93
-0.54111469 0.64449179 1.79053938 90 90 90
-0.53761953 0.64417475 1.78965855 88 88 88
-0.53412783 0.64385802 1.78877854 87 87 87
-0.53076261 0.64369082 1.78831410 85 85 85
-0.52754927 0.64370692 1.78835881 84 84 84
-0.52433580 0.64372301 1.78840351 87 87 87
-0.52112210 0.64373904 1.78844810 89 89 89
-0.51790833 0.64375520 1.78849292 89 90 89
-0.51469427 0.64377123 1.78853750 89 89 88
-0.51148015 0.64378726 1.78858209 86 86 85
-0.50826585 0.64380342 1.78862691 86 86 86
-0.50505137 0.64381945 1.78867149 88 88 88
-0.50183672 0.64383554 1.78871620 87 87 87
-0.49862191 0.64385164 1.78876078 88 88 88
-0.49540702 0.64386773 1.78880560 90 90 89
-0.49219188 0.64388376 1.78885019 89 89 89
-0.48897660 0.64389986 1.78889489 88 88 88
-0.48576120 0.64391601 1.78893971 87 87 87
-0.48254558 0.64393204 1.78898430 87 87 87
-0.47932982 0.64394814 1.78902900 87 87 87
-0.47611395 0.64396429 1.78907382 87 87 87
-0.47289783 0.64398032 1.78911841 87 87 86
-0.46968159 0.64399642 1.78916311 85 85 84
-0.46646523 0.64401257 1.78920794 87 87 87
-0.46324867 0.64402866 1.78925264 90 90 90
-0.46003193 0.64404470 1.78929722 90 90 90
-0.45681506 0.64406085 1.78934205 88 88 88
-0.45359802 0.64407694 1.78938675 87 87 87
-0.45038083 0.64409304 1.78943145 86 86 86
-0.44716349 0.64410913 1.78947628 87 88 87
-0.44394594 0.64412522 1.78952086 86 87 86
-0.44072825 0.64414126 1.78956556 85 85 85
-0.43751043 0.64415741 1.78961039 84 84 84
-0.43429241 0.64417350 1.78965509 86 86 86
-0.43107423 0.64418960 1.78969979 87 87 87
-0.42785594 0.64420575 1.78974462 86 86 86
-0.42463744 0.64422184 1.78978932 87 87 87
-0.42141879 0.64423794 1.78983402 87 87 87
-0.41819999 0.64425403 1.78987885 87 87 87
-0.41498101 0.64427012 1.78992355 87 87 86
-0.41176188 0.64428622 1.78996825 88 88 87
-0.40854260 0.64430237 1.79001307 89 89 89
-0.40532315 0.64431846 1.79005778 87 87 87
-0.40210351 0.64433455 1.79010248 84 84 84
-0.39888379 0.64435071 1.79014742 84 84 83
-0.39566383 0.64436680 1.79019213 85 85 85
-0.39244372 0.64438289 1.79023683 85 85 85
-0.38922349 0.64439905 1.79028165 85 85 85
-0.38600305 0.64441514 1.79032636 86 86 86
-0.38278246 0.64443123 1.79037106 87 87 86
-0.37956169 0.64444733 1.79041576 85 85 84
-0.37634084 0.64446348 1.79046071 81 81 81
-0.37311974 0.64447957 1.79050541 81 81 81
-0.36989853 0.64449567 1.79055011 81 81 81
-0.36667717 0.64451182 1.79059505 81 81 81
-0.36345559 0.64452791 1.79063976 84 84 84
-0.36023387 0.64454401 1.79068446 84 84 84
-0.35701203 0.64456022 1.79072940 84 84 84
-0.35378999 0.64457631 1.79077411 83 83 83
-0.35056779 0.64459240 1.79081881 83 83 83
-0.34734547 0.64460856 1.79086375 86 86 86
-0.34412295 0.64462471 1.79090858 89 89 89
-0.34090027 0.64464080 1.79095328 86 86 86
-0.33767745 0.64465696 1.79099822 86 86 86
-0.33445445 0.64467305 1.79104292 85 85 85
-0.33123127 0.64468914 1.79108763 84 84 84
-0.32800797 0.64470530 1.79113257 84 84 84
-0.32478449 0.64472145 1.79117739 84 84 84
-0.32156083 0.64473754 1.79122210 84 84 84
-0.31833705 0.64475369 1.79126704 85 85 85
-0.31511307 0.64476979 1.79131174 83 83 83
-0.31188893 0.64478594 1.79135656 82 82 82
-0.30866468 0.64480209 1.79140151 84 84 84
-0.30544022 0.64481819 1.79144621 83 83 83
-0.30221561 0.64483434 1.79149103 82 82 82
-0.29899085 0.64485049 1.79153597 82 82 82
-0.29576591 0.64486665 1.79158080 83 83 83
-0.29254079 0.64488274 1.79162550 84 84 84
-0.28931555 0.64489895 1.79167044 84 84 84
-0.28609014 0.64491504 1.79171526 84 84 84
-0.28286454 0.64493114 1.79175997 86 86 86
-0.27963883 0.64494735 1.79180503 87 87 87
-0.27641290 0.64496344 1.79184973 84 84 84
-0.27318683 0.64497960 1.79189456 84 84 83
-0.26996064 0.64499575 1.79193950 85 85 85
-0.26673424 0.64501190 1.79198432 89 89 89
-0.26350769 0.64502805 1.79202914 89 89 89
-0.26028097 0.64504415 1.79207385 86 86 86
-0.25705412 0.64506036 1.79211891 85 85 84
-0.25382710 0.64507645 1.79216373 89 89 88
-0.25059986 0.64509255 1.79220843 86 86 86
-0.24737254 0.64510876 1.79225349 83 83 83
-0.24414502 0.64512491 1.79229832 82 82 82
-0.24091734 0.64514107 1.79234314 81 81 81
-0.23768951 0.64515722 1.79238808 83 83 83
-0.23446150 0.64517337 1.79243290 86 86 86
-0.23123333 0.64518952 1.79247773 86 86 86
-0.22800501 0.64520568 1.79252267 88 88 88
-0.22477652 0.64522183 1.79256749 88 88 88
-0.22154787 0.64523792 1.79261231 86 86 86
-0.21831907 0.64525414 1.79265738 85 85 85
-0.21509010 0.64527029 1.79270220 84 84 84
-0.21186095 0.64528644 1.79274702 84 84 84
-0.20863168 0.64530265 1.79279208 87 87 87
-0.20540223 0.64531881 1.79283690 89 89 88
-0.20217259 0.64533490 1.79288173 88 88 87
-0.19894283 0.64535111 1.79292667 84 84 84
-0.19571286 0.64536721 1.79297149 82 82 82
-0.19248277 0.64538342 1.79301643 82 82 82
-0.18925251 0.64539957 1.79306138 84 84 84
-0.18602209 0.64541578 1.79310632 85 85 85
-0.18279149 0.64543188 1.79315114 86 86 86
-0.17956075 0.64544809 1.79319620 85 85 85
-0.17632984 0.64546424 1.79324102 85 85 85
-0.17309874 0.64548039 1.79328585 85 85 85
-0.16986753 0.64549661 1.79333091 86 86 86
-0.16663611 0.64551270 1.79337561 87 87 87
-0.16340455 0.64552885 1.79342055 85 85 85
-0.16017283 0.64554507 1.79346550 83 83 83
-0.15694094 0.64556116 1.79351032 86 86 86
-0.15370889 0.64557737 1.79355526 85 85 85
-0.15047669 0.64559358 1.79360032 84 84 84
-0.14724432 0.64560968 1.79364514 84 84 84
-0.14401178 0.64562583 1.79368997 89 89 89
-0.14077909 0.64564204 1.79373503 87 87 87
-0.13754624 0.64565825 1.79377997 83 83 82
-0.13431321 0.64567435 1.79382479 80 80 80
-0.13108005 0.64569056 1.79386985 81 81 81
-0.12784670 0.64570677 1.79391479 81 81 81
-0.12461319 0.64572287 1.79395962 81 81 81
-0.12137954 0.64573914 1.79400480 84 84 84
-0.11814570 0.64575529 1.79404962 86 86 86
-0.11491171 0.64577144 1.79409456 87 87 86
-0.11167757 0.64578772 1.79413962 86 86 85
-0.10844325 0.64580387 1.79418457 84 84 83
-0.10520877 0.64582002 1.79422939 82 82 82
-0.10197414 0.64583623 1.79427457 83 83 83
-0.09873934 0.64585239 1.79431939 85 85 85
-0.09550437 0.64586854 1.79436433 85 85 85
-0.09226926 0.64588481 1.79440939 83 83 83
-0.08903397 0.64590096 1.79445434 83 83 83
-0.08579852 0.64591712 1.79449928 85 85 85
-0.08256291 0.64593339 1.79454434 85 85 85
-0.07932714 0.64594954 1.79458928 80 80 80
-0.07609120 0.64596570 1.79463422 82 82 81
-0.07285510 0.64598191 1.79467916 83 83 82
-0.06961884 0.64599812 1.79472423 81 81 81
-0.06638242 0.64601427 1.79476917 80 80 80
-0.06314583 0.64603049 1.79481411 80 80 80
-0.05990909 0.64604670 1.79485917 80 80 80
-0.05667218 0.64606285 1.79490411 84 84 84
-0.05343511 0.64607906 1.79494905 85 85 85
-0.05019788 0.64609528 1.79499424 87 87 87
-0.04696048 0.64611149 1.79503918 90 90 90
-0.04372292 0.64612764 1.79508412 84 84 84
-0.04048520 0.64614385 1.79512918 79 79 79
-0.03724732 0.64616007 1.79517412 78 78 78
-0.03400927 0.64617622 1.79521906 80 80 80
-0.03077107 0.64619249 1.79526424 82 82 82
-0.02753270 0.64620864 1.79530919 83 83 83
-0.02429417 0.64622486 1.79535413 83 83 83
-0.02105547 0.64624113 1.79539931 85 85 85
-0.01781662 0.64625728 1.79544425 84 84 84
-0.01457760 0.64627343 1.79548919 82 82 82
-0.01133842 0.64628971 1.79553437 84 84 84
-0.00809907 0.64630592 1.79557931 84 84 84
-0.00485956 0.64632213 1.79562438 84 84 84
-0.00161990 0.64633828 1.79566932 82 82 82
0.00161994 0.64635456 1.79571450 80 80 80
0.00485993 0.64637071 1.79575944 80 80 80
0.00810009 0.64638692 1.79580438 81 81 81
0.01134041 0.64640319 1.79584956 82 82 82
0.01458089 0.64641941 1.79589462 82 82 82
0.01782153 0.64643556 1.79593956 83 83 83
0.02106234 0.64645183 1.79598475 85 85 85
0.02430331 0.64646798 1.79602969 82 82 82
0.02754444 0.64648420 1.79607475 80 80 79
0.03078574 0.64650047 1.79611993 82 82 82
0.03402719 0.64651668 1.79616487 81 81 80
0.03726881 0.64653289 1.79620993 80 80 80
0.04051060 0.64654917 1.79625511 82 82 82
0.04375254 0.64656532 1.79630005 84 84 84
0.04699465 0.64658153 1.79634511 83 83 83
0.05023692 0.64659780 1.79639030 80 80 80
0.05347935 0.64661402 1.79643536 81 81 81
0.05672195 0.64663017 1.79648030 83 83 83
0.05996471 0.64664650 1.79652560 85 85 85
0.06320763 0.64666265 1.79657054 88 88 88
0.06645072 0.64667892 1.79661560 84 84 84
0.06969397 0.64669514 1.79666078 82 82 82
0.07293738 0.64671135 1.79670584 81 81 81
0.07618094 0.64672756 1.79675078 79 79 79
0.07942469 0.64674383 1.79679608 81 81 80
0.08266858 0.64676011 1.79684114 81 81 81
0.08591264 0.64677626 1.79688609 78 78 78
0.08915687 0.64679259 1.79693139 81 81 81
0.09240125 0.64680880 1.79697645 82 82 82
0.09564579 0.64682496 1.79702139 80 80 80
0.09889052 0.64684129 1.79706669 82 82 82
0.10213539 0.64685750 1.79711175 82 82 82
0.10538043 0.64687371 1.79715681 80 80 80
0.10862564 0.64688998 1.79720199 80 80 80
0.11187100 0.64690620 1.79724705 82 82 82
0.11511651 0.64692241 1.79729211 83 83 83
0.11836221 0.64693868 1.79733729 81 81 80
0.12160806 0.64695489 1.79738235 81 81 81
0.12485407 0.64697111 1.79742742 80 80 80
0.12810026 0.64698744 1.79747272 78 78 78
0.13134660 0.64700365 1.79751778 80 80 80
0.13459310 0.64701986 1.79756284 81 81 81
0.13783978 0.64703614 1.79760814 82 82 82
0.14108661 0.64705235 1.79765320 82 82 82
0.14433360 0.64706862 1.79769826 82 82 82
0.14758077 0.64708489 1.79774356 82 82 82
0.15082808 0.64710110 1.79778862 81 81 81
0.15407556 0.64711732 1.79783368 81 81 81
0.15732321 0.64713365 1.79787898 80 80 80
0.16057102 0.64714986 1.79792404 79 79 79
0.16381899 0.64716607 1.79796910 80 80 80
0.16706713 0.64718240 1.79801440 81 81 81
0.17031543 0.64719862 1.79805946 81 81 81
0.17356388 0.64721489 1.79810464 82 82 81
0.17681251 0.64723110 1.79814982 80 80 80
0.18006131 0.64724737 1.79819500 79 79 79
0.18331024 0.64726359 1.79824007 78 78 78
0.18655935 0.64727986 1.79828513 77 77 77
0.18980864 0.64729613 1.79833043 80 80 80
0.19305809 0.64731240 1.79837561 82 82 82
0.19630767 0.64732862 1.79842067 82 82 82
0.19955745 0.64734495 1.79846597 82 82 81
0.20280738 0.64736116 1.79851115 81 81 80
0.20605747 0.64737743 1.79855621 80 80 80
0.20930775 0.64739370 1.79860151 82 82 82
0.21255817 0.64740998 1.79864669 81 81 81
0.21580873 0.64742619 1.79869175 79 79 79
0.21905950 0.64744252 1.79873705 82 82 82
0.22231039 0.64745873 1.79878223 80 80 79
0.22556147 0.64747500 1.79882741 79 79 78
0.22881272 0.64749134 1.79887271 80 80 79
0.23206411 0.64750755 1.79891777 82 82 82
0.23531567 0.64752382 1.79896295 80 80 80
0.23856741 0.64754009 1.79900825 79 79 79
0.24181929 0.64755636 1.79905343 81 81 81
0.24507135 0.64757264 1.79909861 81 81 80
0.24832357 0.64758897 1.79914391 79 79 78
0.25157595 0.64760518 1.79918909 79 79 78
0.25482848 0.64762145 1.79923415 76 76 76
0.25808123 0.64763778 1.79927957 78 78 78
0.26133409 0.64765406 1.79932475 84 84 83
0.26458710 0.64767027 1.79936981 81 81 81
0.26784033 0.64768660 1.79941523 82 82 82
0.27109367 0.64770287 1.79946041 82 82 82
0.27434719 0.64771914 1.79950559 78 78 78
0.27760091 0.64773542 1.79955089 79 79 79
0.28085473 0.64775169 1.79959607 80 80 80
0.28410876 0.64776796 1.79964125 81 82 81
0.28736293 0.64778429 1.79968655 76 76 76
0.29061729 0.64780051 1.79973173 75 75 75
0.29387179 0.64781678 1.79977691 75 75 75
0.29712647 0.64783311 1.79982233 78 78 78
0.30038130 0.64784938 1.79986751 80 80 80
0.30363628 0.64786565 1.79991269 80 80 80
0.30689147 0.64788198 1.79995811 78 78 77
0.31014678 0.64789826 1.80000329 79 79 79
0.31340227 0.64791453 1.80004847 78 78 78
0.31665796 0.64793086 1.80009389 77 77 77
0.31991374 0.64794713 1.80013907 77 77 77
0.32316971 0.64796340 1.80018425 77 77 77
0.32642588 0.64797974 1.80022967 78 78 78
0.32968217 0.64799601 1.80027485 81 81 81
0.33293864 0.64801228 1.80032003 76 76 76
0.33619529 0.64802861 1.80036545 75 75 75
0.33945209 0.64804488 1.80041063 78 78 78
0.34270903 0.64806116 1.80045581 79 79 79
0.34596619 0.64807749 1.80050123 79 79 78
0.34922346 0.64809382 1.80054653 77 77 77
0.35248092 0.64811009 1.80059171 75 75 75
0.35573855 0.64812642 1.80063713 79 79 79
0.35899633 0.64814270 1.80068231 80 80 80
0.36225426 0.64815897 1.80072761 80 80 80
0.36554852 0.64823937 1.80095088 79 79 79
0.36899680 0.64858907 1.80192256 78 78 78
0.37244886 0.64893925 1.80289543 75 75 75
0.37590465 0.64928985 1.80386937 70 70 70
0.37936413 0.64964074 1.80484426 72 72 72
0.38282740 0.64999205 1.80582023 69 69 69
0.38629439 0.65034372 1.80679727 67 67 67
0.38975525 0.65067923 1.80772948 66 66 66
0.39316866 0.65093070 1.80842805 63 63 63
0.39658475 0.65118235 1.80912721 58 58 58
0.40000346 0.65143418 1.80982685 57 57 57
0.40342477 0.65168613 1.81052685 58 58 58
0.40684879 0.65193844 1.81122768 57 57 57
0.41027540 0.65219080 1.81192887 56 56 56
0.67027229 1.05706966 2.93677115 153 153 153
0.67557085 1.05706966 2.93677115 153 153 153
0.68086946 1.05706966 2.93677115 153 153 153
0.68616807 1.05706966 2.93677115 153 153 153
0.69146663 1.05706966 2.93677115 153 153 153
0.69676524 1.05706966 2.93677115 153 153 153
0.70206386 1.05706966 2.93677115 153 153 153
0.70736241 1.05706966 2.93677115 153 153 153
0.71266103 1.05706966 2.93677115 153 153 153
0.71795964 1.05706966 2.93677115 153 153 153
0.72325820 1.05706966 2.93677115 153 153 153
0.72855681 1.05706966 2.93677115 153 153 153
0.73385543 1.05706966 2.93677115 153 153 153
0.73915398 1.05706966 2.93677115 153 153 153
0.74445260 1.05706966 2.93677115 153 153 153
0.74975121 1.05706966 2.93677115 153 153 153
0.75504977 1.05706966 2.93677115 153 153 153
0.76034838 1.05706966 2.93677115 153 153 153
0.76564699 1.05706966 2.93677115 153 153 153
0.77094555 1.05706966 2.93677115 153 153 153
0.77624416 1.05706966 2.93677115 153 153 153
0.78154278 1.05706966 2.93677115 153 153 153
0.78684133 1.05706966 2.93677115 154 154 154
0.79213995 1.05706966 2.93677115 155 155 155
0.79743856 1.05706966 2.93677115 155 155 155
0.80273718 1.05706966 2.93677115 155 155 155
0.80803573 1.05706966 2.93677115 155 155 155
0.81333435 1.05706966 2.93677115 155 155 155
0.81863296 1.05706966 2.93677115 155 155 155
0.82393152 1.05706966 2.93677115 155 155 155
0.82923013 1.05706966 2.93677115 155 155 155
0.83452874 1.05706966 2.93677115 155 155 155
0.83982730 1.05706966 2.93677115 155 155 155
0.84512591 1.05706966 2.93677115 155 155 155
0.85042453 1.05706966 2.93677115 155 155 155
0.85572314 1.05706978 2.93677139 155 155 155
0.86102176 1.05706978 2.93677139 155 155 155
0.86632037 1.05706978 2.93677139 155 155 155
0.87161893 1.05706978 2.93677139 155 155 155
0.87691754 1.05706978 2.93677139 155 155 155
0.88221616 1.05706978 2.93677139 155 155 155
0.88751477 1.05706978 2.93677139 155 155 155
0.89281332 1.05706978 2.93677139 155 155 155
0.89811194 1.05706978 2.93677139 155 155 155
0.90341055 1.05706978 2.93677139 155 155 155
0.90870911 1.05706978 2.93677139 155 155 155
0.91400772 1.05706978 2.93677139 155 155 155
0.91930634 1.05706978 2.93677139 155 155 155
0.92460489 1.05706978 2.93677139 155 155 155
0.92990351 1.05706978 2.93677139 155 155 155
0.93520212 1.05706978 2.93677139 155 155 155
0.94050068 1.05706978 2.93677139 155 155 155
0.94579929 1.05706978 2.93677139 155 155 155
0.95109791 1.05706978 2.93677139 155 155 155
0.95639646 1.05706978 2.93677139 155 155 155
0.96169508 1.05706978 2.93677139 155 155 155
0.96699369 1.05706978 2.93677139 155 155 155
0.97229224 1.05706978 2.93677139 155 155 155
0.97759086 1.05706978 2.93677139 155 155 155
0.98288947 1.05706978 2.93677139 155 155 155
0.98818803 1.05706978 2.93677139 155 155 155
0.99348664 1.05706978 2.93677139 155 155 155
0.99878526 1.05706978 2.93677139 155 155 155
1.00408387 1.05706978 2.93677139 155 155 155
1.00938249 1.05706978 2.93677139 155 155 155
1.01468098 1.05706978 2.93677139 155 155 155
1.01997960 1.05706978 2.93677139 155 155 155
1.02527833 1.05706990 2.93677163 155 155 155
1.03057694 1.05706990 2.93677163 155 155 155
1.03587544 1.05706990 2.93677163 155 155 155
1.04117405 1.05706990 2.93677163 155 155 155
1.04647267 1.05706990 2.93677163 155 155 155
1.05177128 1.05706990 2.93677163 155 155 155
1.05706990 1.05706990 2.93677163 155 155 155
1.06236851 1.05706990 2.93677163 155 155 155
1.06766713 1.05706990 2.93677163 155 155 155
1.07296562 1.05706990 2.93677163 155 155 155
1.07826424 1.05706990 2.93677163 155 155 155
1.08356285 1.05706990 2.93677163 155 155 155
1.08886147 1.05706990 2.93677163 155 155 155
1.09416008 1.05706990 2.93677163 155 155 155
1.09945869 1.05706990 2.93677163 155 155 155
1.10475719 1.05706990 2.93677163 155 155 155
1.11005580 1.05706990 2.93677163 155 155 155
1.11535442 1.05706990 2.93677163 155 155 155
1.12065303 1.05706990 2.93677163 155 155 155
1.12595165 1.05706990 2.93677163 155 155 155
1.13125026 1.05706990 2.93677163 155 155 155
1.13654888 1.05706990 2.93677163 155 155 155
1.14184737 1.05706990 2.93677163 155 155 155
1.14714599 1.05706990 2.93677163 155 155 155
1.15244460 1.05706990 2.93677163 155 155 155
1.15774322 1.05706990 2.93677163 155 155 155
1.16304183 1.05706990 2.93677163 155 155 155
1.16834044 1.05706990 2.93677163 155 155 155
1.17363894 1.05706990 2.93677163 155 155 155
1.17893755 1.05706990 2.93677163 155 155 155
1.18423617 1.05706990 2.93677163 155 155 155
1.18953478 1.05706990 2.93677163 155 155 155
1.19483340 1.05706990 2.93677163 155 155 155
1.20013201 1.05706990 2.93677163 155 155 155
1.20543051 1.05706990 2.93677163 155 155 155
1.21072912 1.05706990 2.93677163 155 155 155
1.21602774 1.05706990 2.93677163 155 155 155
1.22132635 1.05706990 2.93677163 155 155 155
1.22662497 1.05706990 2.93677163 155 155 155
1.23192358 1.05706990 2.93677163 155 155 155
1.23722219 1.05706990 2.93677163 155 155 155
1.24252069 1.05706990 2.93677163 155 155 155
1.24781930 1.05706990 2.93677163 155 155 155
1.25311792 1.05706990 2.93677163 155 155 155
